-9999.00 -9999.00 -9999.00 -9999.00 -9999.00 -9999.00 -9999.00 -9999.00 -9999.00 -9999.00 -9999.00 -9999.00 -9999.00 -9999.00 -9999.00 -9999.00 -9999.00 -9999.00 -9999.00 -9999.00 -9999.00 -9999.00 -9999.00 -9999.00 -9999.00 -9999.00 -9999.00 -9999.00 -9999.00 -9999.00 -9999.00 -9999.00 -9999.00 -9999.00 -9999.00 -9999.00 -9999.00 -9999.00 -9999.00 -9999.00 -9999.00 -9999.00 -9999.00 -9999.00 -9999.00 -9999.00 -9999.00 -9999.00 -9999.00 -9999.00 -9999.00 -9999.00 -9999.00 -9999.00 -9999.00 -9999.00 -3102.74 -1282.72 125.58 979.72 1385.70 1562.46 1617.06 1632.25 1635.22 1635.27 1634.82 1634.36 1634.04 1633.92 1634.00 1634.28 1634.70 1635.22 1635.80 1636.39 1636.90 1637.28 1637.52 1637.62 1637.58 1637.31 1636.78 1635.95 1634.78 1633.24 1631.35 1629.27 1627.09 1624.76 1622.26 1619.54 1616.57 1613.53 1610.63 1607.97 1605.51 1603.29 1601.41 1599.89 1598.63 1597.48 1596.32 1595.08 1593.76 1592.38 1590.95 1589.49 1588.10 1586.88 1585.74 1584.52 1583.17 1581.59 1579.67 1577.50 1575.30 1573.10 1570.91 1568.67 1566.27 1563.64 1560.90 1558.12 1555.18 1552.06 1548.47 1543.19 1536.21 1530.09 1526.74 1527.21 1532.30 1540.34 1548.10 1554.35 1559.29 1547.90 1329.13 56.63 -3278.15 -9999.00 -9999.00 -9999.00 -9999.00 -9999.00 -9999.00 -9999.00 -9999.00 -9999.00 -9999.00 -9999.00 -9999.00 -9999.00 -9999.00 -9999.00 -9999.00 -9999.00 -9999.00 -9999.00 -9999.00 -9999.00 -9999.00 -9999.00 -9999.00 -9999.00 -9999.00 -9999.00 -9999.00 -9999.00
-9999.00 -9999.00 -9999.00 -9999.00 -9999.00 -9999.00 -9999.00 -9999.00 -9999.00 -9999.00 -9999.00 -9999.00 -9999.00 -9999.00 -9999.00 -9999.00 -9999.00 -9999.00 -9999.00 -9999.00 -9999.00 -9999.00 -9999.00 -9999.00 -9999.00 -9999.00 -9999.00 -9999.00 -9999.00 -9999.00 -9999.00 -9999.00 -9999.00 -9999.00 -9999.00 -9999.00 -9999.00 -9999.00 -9999.00 -9999.00 -9999.00 -9999.00 -9999.00 -9999.00 -9999.00 -9999.00 -9999.00 -9999.00 -9999.00 -9999.00 -9999.00 -9999.00 -9999.00 -9999.00 -3254.95 -1295.45 124.91 979.44 1385.50 1562.41 1617.19 1632.51 1635.52 1635.52 1634.95 1634.29 1633.67 1633.12 1632.73 1632.56 1632.64 1632.96 1633.48 1634.13 1634.86 1635.58 1636.20 1636.69 1637.02 1637.20 1637.21 1636.97 1636.45 1635.62 1634.45 1632.87 1630.91 1628.81 1626.59 1624.22 1621.68 1618.90 1615.87 1612.81 1609.89 1607.13 1604.47 1601.98 1599.82 1598.10 1596.75 1595.59 1594.50 1593.40 1592.26 1591.12 1589.99 1588.84 1587.75 1586.78 1585.84 1584.79 1583.54 1582.04 1580.25 1578.18 1575.88 1573.39 1570.78 1568.11 1565.36 1562.41 1559.40 1556.53 1553.69 1550.75 1547.24 1542.25 1536.07 1530.86 1528.23 1529.36 1535.04 1543.15 1550.27 1555.80 1559.72 1528.30 1080.35 -1063.00 -9999.00 -9999.00 -9999.00 -9999.00 -9999.00 -9999.00 -9999.00 -9999.00 -9999.00 -9999.00 -9999.00 -9999.00 -9999.00 -9999.00 -9999.00 -9999.00 -9999.00 -9999.00 -9999.00 -9999.00 -9999.00 -9999.00 -9999.00 -9999.00 -9999.00 -9999.00 -9999.00 -9999.00 -9999.00 -9999.00
-9999.00 -9999.00 -9999.00 -9999.00 -9999.00 -9999.00 -9999.00 -9999.00 -9999.00 -9999.00 -9999.00 -9999.00 -9999.00 -9999.00 -9999.00 -9999.00 -9999.00 -9999.00 -9999.00 -9999.00 -9999.00 -9999.00 -9999.00 -9999.00 -9999.00 -9999.00 -9999.00 -9999.00 -9999.00 -9999.00 -9999.00 -9999.00 -9999.00 -9999.00 -9999.00 -9999.00 -9999.00 -9999.00 -9999.00 -9999.00 -9999.00 -9999.00 -9999.00 -9999.00 -9999.00 -9999.00 -9999.00 -9999.00 -9999.00 -9999.00 -9999.00 -9999.00 -9999.00 -2418.99 -126.01 958.51 1384.48 1562.03 1616.91 1632.42 1635.66 1635.85 1635.34 1634.63 1633.87 1633.13 1632.43 1631.80 1631.32 1631.08 1631.13 1631.49 1632.10 1632.90 1633.77 1634.62 1635.37 1635.97 1636.42 1636.72 1636.83 1636.66 1636.17 1635.36 1634.20 1632.61 1630.67 1628.59 1626.37 1624.00 1621.47 1618.70 1615.74 1612.77 1609.92 1607.19 1604.57 1602.07 1599.81 1597.86 1596.24 1594.85 1593.64 1592.55 1591.55 1590.64 1589.78 1588.87 1587.95 1587.06 1586.20 1585.29 1584.23 1582.97 1581.51 1579.79 1577.77 1575.48 1572.96 1570.21 1567.18 1563.88 1560.52 1557.37 1554.38 1551.40 1548.04 1543.68 1538.42 1533.56 1530.60 1531.06 1536.00 1543.58 1550.49 1556.01 1559.58 1516.22 929.61 -1740.38 -9999.00 -9999.00 -9999.00 -9999.00 -9999.00 -9999.00 -9999.00 -9999.00 -9999.00 -9999.00 -9999.00 -9999.00 -9999.00 -9999.00 -9999.00 -9999.00 -9999.00 -9999.00 -9999.00 -9999.00 -9999.00 -9999.00 -9999.00 -9999.00 -9999.00 -9999.00 -9999.00 -9999.00 -9999.00 -9999.00
-9999.00 -9999.00 -9999.00 -9999.00 -9999.00 -9999.00 -9999.00 -9999.00 -9999.00 -9999.00 -9999.00 -9999.00 -9999.00 -9999.00 -9999.00 -9999.00 -9999.00 -9999.00 -9999.00 -9999.00 -9999.00 -9999.00 -9999.00 -9999.00 -9999.00 -9999.00 -9999.00 -9999.00 -9999.00 -9999.00 -9999.00 -9999.00 -9999.00 -9999.00 -9999.00 -9999.00 -9999.00 -9999.00 -9999.00 -9999.00 -9999.00 -9999.00 -9999.00 -9999.00 -9999.00 -9999.00 -9999.00 -9999.00 -9999.00 -9999.00 -9999.00 -3252.31 -1261.86 276.61 1232.12 1549.11 1616.03 1631.92 1635.27 1635.68 1635.45 1634.95 1634.28 1633.51 1632.71 1631.91 1631.12 1630.40 1629.84 1629.52 1629.54 1629.92 1630.63 1631.54 1632.55 1633.54 1634.43 1635.19 1635.79 1636.22 1636.45 1636.40 1636.00 1635.24 1634.12 1632.56 1630.68 1628.66 1626.49 1624.16 1621.67 1619.00 1616.19 1613.36 1610.61 1608.01 1605.54 1603.21 1600.99 1598.93 1597.07 1595.42 1594.00 1592.80 1591.79 1590.94 1590.16 1589.36 1588.48 1587.54 1586.61 1585.74 1584.81 1583.74 1582.52 1581.13 1579.50 1577.63 1575.56 1573.16 1570.25 1566.90 1563.44 1560.15 1557.02 1553.93 1550.73 1547.09 1542.70 1537.96 1534.09 1532.76 1535.65 1542.15 1549.29 1555.34 1559.12 1513.25 895.67 -1891.92 -9999.00 -9999.00 -9999.00 -9999.00 -9999.00 -9999.00 -9999.00 -9999.00 -9999.00 -9999.00 -9999.00 -9999.00 -9999.00 -9999.00 -9999.00 -9999.00 -9999.00 -9999.00 -9999.00 -9999.00 -9999.00 -9999.00 -9999.00 -9999.00 -9999.00 -9999.00 -9999.00 -9999.00 -9999.00 -9999.00
-9999.00 -9999.00 -9999.00 -9999.00 -9999.00 -9999.00 -9999.00 -9999.00 -9999.00 -9999.00 -9999.00 -9999.00 -9999.00 -9999.00 -9999.00 -9999.00 -9999.00 -9999.00 -9999.00 -9999.00 -9999.00 -9999.00 -9999.00 -9999.00 -9999.00 -9999.00 -9999.00 -9999.00 -9999.00 -9999.00 -9999.00 -9999.00 -9999.00 -9999.00 -9999.00 -9999.00 -9999.00 -9999.00 -9999.00 -9999.00 -9999.00 -9999.00 -9999.00 -9999.00 -9999.00 -9999.00 -9999.00 -9999.00 -9999.00 -9999.00 -2418.93 -125.93 960.87 1396.26 1581.73 1628.61 1634.57 1635.06 1634.95 1634.69 1634.29 1633.74 1633.05 1632.28 1631.46 1630.62 1629.77 1628.95 1628.23 1627.76 1627.73 1628.20 1629.06 1630.13 1631.26 1632.39 1633.44 1634.38 1635.15 1635.74 1636.10 1636.17 1635.90 1635.24 1634.19 1632.72 1630.93 1628.97 1626.88 1624.62 1622.21 1619.68 1617.03 1614.31 1611.64 1609.14 1606.81 1604.61 1602.49 1600.42 1598.45 1596.66 1595.09 1593.75 1592.62 1591.67 1590.84 1590.05 1589.19 1588.19 1587.15 1586.19 1585.31 1584.36 1583.27 1582.07 1580.71 1579.17 1577.47 1575.50 1573.01 1569.95 1566.62 1563.32 1560.12 1556.93 1553.71 1550.40 1546.75 1542.66 1538.51 1535.46 1535.87 1540.79 1547.89 1554.40 1558.25 1509.79 880.23 -1924.86 -9999.00 -9999.00 -9999.00 -9999.00 -9999.00 -9999.00 -9999.00 -9999.00 -9999.00 -9999.00 -9999.00 -9999.00 -9999.00 -9999.00 -9999.00 -9999.00 -9999.00 -9999.00 -9999.00 -9999.00 -9999.00 -9999.00 -9999.00 -9999.00 -9999.00 -9999.00 -9999.00 -9999.00 -9999.00 -9999.00
-9999.00 -9999.00 -9999.00 -9999.00 -9999.00 -9999.00 -9999.00 -9999.00 -9999.00 -9999.00 -9999.00 -9999.00 -9999.00 -9999.00 -9999.00 -9999.00 -9999.00 -9999.00 -9999.00 -9999.00 -9999.00 -9999.00 -9999.00 -9999.00 -9999.00 -9999.00 -9999.00 -9999.00 -9999.00 -9999.00 -9999.00 -9999.00 -9999.00 -9999.00 -9999.00 -9999.00 -9999.00 -9999.00 -9999.00 -9999.00 -9999.00 -9999.00 -9999.00 -9999.00 -9999.00 -9999.00 -9999.00 -9999.00 -3254.56 -1261.48 276.86 1232.08 1548.78 1615.60 1631.39 1634.22 1634.21 1633.95 1633.68 1633.36 1632.91 1632.36 1631.70 1630.95 1630.15 1629.28 1628.35 1627.33 1626.30 1625.55 1625.43 1626.08 1627.27 1628.63 1629.96 1631.23 1632.45 1633.56 1634.53 1635.29 1635.79 1635.97 1635.82 1635.30 1634.37 1633.03 1631.34 1629.44 1627.43 1625.26 1622.94 1620.54 1618.02 1615.38 1612.76 1610.29 1608.02 1605.89 1603.83 1601.80 1599.82 1597.95 1596.27 1594.84 1593.60 1592.54 1591.62 1590.78 1589.91 1588.91 1587.78 1586.70 1585.79 1584.90 1583.90 1582.78 1581.56 1580.20 1578.70 1577.02 1574.97 1572.37 1569.32 1566.07 1562.78 1559.45 1556.08 1552.73 1549.46 1546.13 1542.44 1538.72 1537.37 1540.74 1547.25 1553.65 1554.88 1475.42 728.27 -2175.04 -9999.00 -9999.00 -9999.00 -9999.00 -9999.00 -9999.00 -9999.00 -9999.00 -9999.00 -9999.00 -9999.00 -9999.00 -9999.00 -9999.00 -9999.00 -9999.00 -9999.00 -9999.00 -9999.00 -9999.00 -9999.00 -9999.00 -9999.00 -9999.00 -9999.00 -9999.00 -9999.00 -9999.00 -9999.00 -9999.00
-9999.00 -9999.00 -9999.00 -9999.00 -9999.00 -9999.00 -9999.00 -9999.00 -9999.00 -9999.00 -9999.00 -9999.00 -9999.00 -9999.00 -9999.00 -9999.00 -9999.00 -9999.00 -9999.00 -9999.00 -9999.00 -9999.00 -9999.00 -9999.00 -9999.00 -9999.00 -9999.00 -9999.00 -9999.00 -9999.00 -9999.00 -9999.00 -9999.00 -9999.00 -9999.00 -9999.00 -9999.00 -9999.00 -9999.00 -9999.00 -9999.00 -9999.00 -9999.00 -9999.00 -9999.00 -9999.00 -9999.00 -2572.85 -137.50 961.33 1396.80 1581.88 1628.28 1633.72 1633.74 1633.28 1632.88 1632.55 1632.22 1631.84 1631.39 1630.87 1630.28 1629.59 1628.80 1627.88 1626.76 1625.43 1624.00 1622.86 1622.61 1623.53 1625.22 1627.04 1628.69 1630.14 1631.51 1632.80 1633.96 1634.89 1635.51 1635.80 1635.76 1635.35 1634.56 1633.37 1631.79 1629.96 1628.01 1625.92 1623.70 1621.40 1618.97 1616.42 1613.84 1611.35 1609.06 1606.93 1604.89 1602.90 1600.95 1599.04 1597.29 1595.76 1594.45 1593.32 1592.32 1591.41 1590.51 1589.52 1588.36 1587.19 1586.20 1585.35 1584.42 1583.34 1582.18 1580.92 1579.50 1577.95 1576.18 1574.01 1571.30 1568.13 1564.74 1561.27 1557.71 1554.21 1550.94 1547.91 1544.66 1541.12 1539.34 1541.85 1547.53 1553.11 1542.15 1323.71 49.91 -3292.91 -9999.00 -9999.00 -9999.00 -9999.00 -9999.00 -9999.00 -9999.00 -9999.00 -9999.00 -9999.00 -9999.00 -9999.00 -9999.00 -9999.00 -9999.00 -9999.00 -9999.00 -9999.00 -9999.00 -9999.00 -9999.00 -9999.00 -9999.00 -9999.00 -9999.00 -9999.00 -9999.00 -9999.00 -9999.00 -9999.00
-9999.00 -9999.00 -9999.00 -9999.00 -9999.00 -9999.00 -9999.00 -9999.00 -9999.00 -9999.00 -9999.00 -9999.00 -9999.00 -9999.00 -9999.00 -9999.00 -9999.00 -9999.00 -9999.00 -9999.00 -9999.00 -9999.00 -9999.00 -9999.00 -9999.00 -9999.00 -9999.00 -9999.00 -9999.00 -9999.00 -9999.00 -9999.00 -9999.00 -9999.00 -9999.00 -9999.00 -9999.00 -9999.00 -9999.00 -9999.00 -9999.00 -9999.00 -9999.00 -9999.00 -9999.00 -9999.00 -2538.50 15.10 1212.57 1549.39 1616.50 1631.83 1634.08 1633.43 1632.61 1631.95 1631.46 1631.05 1630.67 1630.25 1629.81 1629.33 1628.81 1628.18 1627.35 1626.27 1624.90 1623.22 1621.37 1619.83 1619.48 1620.77 1623.07 1625.46 1627.49 1629.18 1630.69 1632.14 1633.45 1634.51 1635.25 1635.63 1635.67 1635.38 1634.71 1633.65 1632.17 1630.41 1628.50 1626.50 1624.36 1622.12 1619.77 1617.31 1614.77 1612.24 1609.87 1607.69 1605.62 1603.64 1601.74 1599.85 1598.03 1596.41 1595.02 1593.84 1592.77 1591.79 1590.84 1589.82 1588.65 1587.46 1586.45 1585.62 1584.77 1583.75 1582.61 1581.39 1580.01 1578.48 1576.81 1574.87 1572.40 1569.30 1565.83 1562.22 1558.52 1554.86 1551.47 1548.38 1545.23 1542.20 1541.04 1543.50 1548.46 1552.82 1521.70 1074.18 -1067.72 -9999.00 -9999.00 -9999.00 -9999.00 -9999.00 -9999.00 -9999.00 -9999.00 -9999.00 -9999.00 -9999.00 -9999.00 -9999.00 -9999.00 -9999.00 -9999.00 -9999.00 -9999.00 -9999.00 -9999.00 -9999.00 -9999.00 -9999.00 -9999.00 -9999.00 -9999.00 -9999.00 -9999.00 -9999.00 -9999.00 -9999.00
-9999.00 -9999.00 -9999.00 -9999.00 -9999.00 -9999.00 -9999.00 -9999.00 -9999.00 -9999.00 -9999.00 -9999.00 -9999.00 -9999.00 -9999.00 -9999.00 -9999.00 -9999.00 -9999.00 -9999.00 -9999.00 -9999.00 -9999.00 -9999.00 -9999.00 -9999.00 -9999.00 -9999.00 -9999.00 -9999.00 -9999.00 -9999.00 -9999.00 -9999.00 -9999.00 -9999.00 -9999.00 -9999.00 -9999.00 -9999.00 -9999.00 -9999.00 -9999.00 -9999.00 -9999.00 -2537.77 18.51 1225.75 1570.67 1629.59 1635.08 1634.59 1633.46 1632.34 1631.40 1630.65 1630.06 1629.54 1629.07 1628.63 1628.19 1627.75 1627.24 1626.58 1625.63 1624.33 1622.69 1620.72 1618.53 1616.75 1616.45 1618.20 1621.11 1624.02 1626.42 1628.36 1630.01 1631.56 1632.99 1634.15 1634.96 1635.42 1635.54 1635.33 1634.77 1633.80 1632.40 1630.69 1628.83 1626.89 1624.82 1622.62 1620.33 1617.93 1615.44 1612.87 1610.40 1608.14 1606.00 1603.99 1602.13 1600.26 1598.39 1596.67 1595.19 1593.93 1592.79 1591.73 1590.71 1589.63 1588.47 1587.34 1586.40 1585.64 1584.88 1583.92 1582.81 1581.61 1580.24 1578.67 1576.95 1575.01 1572.55 1569.42 1565.87 1562.18 1558.40 1554.65 1551.15 1547.86 1544.75 1542.50 1542.52 1545.35 1549.79 1553.15 1509.47 922.54 -1746.16 -9999.00 -9999.00 -9999.00 -9999.00 -9999.00 -9999.00 -9999.00 -9999.00 -9999.00 -9999.00 -9999.00 -9999.00 -9999.00 -9999.00 -9999.00 -9999.00 -9999.00 -9999.00 -9999.00 -9999.00 -9999.00 -9999.00 -9999.00 -9999.00 -9999.00 -9999.00 -9999.00 -9999.00 -9999.00 -9999.00 -9999.00
-9999.00 -9999.00 -9999.00 -9999.00 -9999.00 -9999.00 -9999.00 -9999.00 -9999.00 -9999.00 -9999.00 -9999.00 -9999.00 -9999.00 -9999.00 -9999.00 -9999.00 -9999.00 -9999.00 -9999.00 -9999.00 -9999.00 -9999.00 -9999.00 -9999.00 -9999.00 -9999.00 -9999.00 -9999.00 -9999.00 -9999.00 -9999.00 -9999.00 -9999.00 -9999.00 -9999.00 -9999.00 -9999.00 -9999.00 -9999.00 -9999.00 -9999.00 -9999.00 -9999.00 -2537.12 19.30 1226.64 1571.86 1631.04 1636.22 1635.33 1633.94 1632.54 1631.29 1630.25 1629.38 1628.62 1627.95 1627.34 1626.83 1626.38 1625.94 1625.40 1624.64 1623.51 1621.98 1620.12 1617.94 1615.64 1613.92 1613.96 1616.20 1619.56 1622.84 1625.54 1627.68 1629.45 1631.06 1632.56 1633.78 1634.64 1635.15 1635.33 1635.17 1634.66 1633.75 1632.41 1630.75 1628.94 1627.05 1625.01 1622.83 1620.56 1618.18 1615.70 1613.09 1610.56 1608.23 1606.03 1603.97 1602.08 1600.18 1598.24 1596.44 1594.88 1593.51 1592.25 1591.08 1589.96 1588.84 1587.72 1586.73 1585.95 1585.32 1584.65 1583.78 1582.71 1581.53 1580.14 1578.47 1576.59 1574.42 1571.70 1568.40 1564.80 1561.12 1557.35 1553.63 1550.06 1546.70 1543.98 1542.95 1544.27 1547.43 1551.40 1553.87 1504.45 876.54 -1917.86 -9999.00 -9999.00 -9999.00 -9999.00 -9999.00 -9999.00 -9999.00 -9999.00 -9999.00 -9999.00 -9999.00 -9999.00 -9999.00 -9999.00 -9999.00 -9999.00 -9999.00 -9999.00 -9999.00 -9999.00 -9999.00 -9999.00 -9999.00 -9999.00 -9999.00 -9999.00 -9999.00 -9999.00 -9999.00 -9999.00 -9999.00
-9999.00 -9999.00 -9999.00 -9999.00 -9999.00 -9999.00 -9999.00 -9999.00 -9999.00 -9999.00 -9999.00 -9999.00 -9999.00 -9999.00 -9999.00 -9999.00 -9999.00 -9999.00 -9999.00 -9999.00 -9999.00 -9999.00 -9999.00 -9999.00 -9999.00 -9999.00 -9999.00 -9999.00 -9999.00 -9999.00 -9999.00 -9999.00 -9999.00 -9999.00 -9999.00 -9999.00 -9999.00 -9999.00 -9999.00 -9999.00 -9999.00 -9999.00 -9999.00 -2536.40 20.25 1227.66 1572.84 1632.02 1637.25 1636.32 1634.84 1633.24 1631.70 1630.35 1629.16 1628.05 1627.02 1626.10 1625.30 1624.66 1624.17 1623.71 1623.14 1622.28 1620.97 1619.25 1617.24 1615.01 1612.82 1611.50 1612.16 1614.87 1618.49 1621.95 1624.83 1627.12 1628.96 1630.61 1632.14 1633.41 1634.29 1634.82 1635.03 1634.88 1634.38 1633.48 1632.17 1630.56 1628.80 1626.94 1624.91 1622.71 1620.41 1618.01 1615.49 1612.87 1610.32 1607.96 1605.69 1603.56 1601.57 1599.58 1597.57 1595.70 1594.03 1592.51 1591.09 1589.78 1588.56 1587.42 1586.40 1585.58 1585.00 1584.54 1584.01 1583.25 1582.27 1581.10 1579.64 1577.82 1575.66 1573.05 1569.92 1566.44 1562.85 1559.22 1555.57 1551.97 1548.49 1545.46 1543.78 1544.20 1546.48 1549.68 1553.13 1552.38 1471.33 723.09 -2179.29 -9999.00 -9999.00 -9999.00 -9999.00 -9999.00 -9999.00 -9999.00 -9999.00 -9999.00 -9999.00 -9999.00 -9999.00 -9999.00 -9999.00 -9999.00 -9999.00 -9999.00 -9999.00 -9999.00 -9999.00 -9999.00 -9999.00 -9999.00 -9999.00 -9999.00 -9999.00 -9999.00 -9999.00 -9999.00 -9999.00 -9999.00
-9999.00 -9999.00 -9999.00 -9999.00 -9999.00 -9999.00 -9999.00 -9999.00 -9999.00 -9999.00 -9999.00 -9999.00 -9999.00 -9999.00 -9999.00 -9999.00 -9999.00 -9999.00 -9999.00 -9999.00 -9999.00 -9999.00 -9999.00 -9999.00 -9999.00 -9999.00 -9999.00 -9999.00 -9999.00 -9999.00 -9999.00 -9999.00 -9999.00 -9999.00 -9999.00 -9999.00 -9999.00 -9999.00 -9999.00 -9999.00 -9999.00 -9999.00 -2535.61 21.25 1228.78 1574.02 1633.17 1638.40 1637.57 1636.10 1634.43 1632.71 1631.07 1629.59 1628.16 1626.70 1625.26 1623.93 1622.82 1622.00 1621.42 1620.91 1620.30 1619.36 1617.96 1616.20 1614.20 1612.07 1610.18 1609.51 1610.93 1614.05 1617.78 1621.33 1624.31 1626.65 1628.52 1630.17 1631.73 1633.01 1633.89 1634.42 1634.61 1634.45 1633.92 1632.99 1631.68 1630.09 1628.38 1626.54 1624.48 1622.24 1619.89 1617.42 1614.85 1612.22 1609.68 1607.28 1604.95 1602.73 1600.61 1598.48 1596.40 1594.46 1592.65 1590.94 1589.34 1587.89 1586.60 1585.46 1584.48 1583.74 1583.30 1583.06 1582.77 1582.24 1581.41 1580.25 1578.68 1576.66 1574.09 1570.99 1567.53 1563.96 1560.39 1556.84 1553.33 1549.92 1546.87 1544.87 1544.72 1546.35 1549.01 1552.01 1554.67 1541.47 1321.32 46.45 -3295.99 -9999.00 -9999.00 -9999.00 -9999.00 -9999.00 -9999.00 -9999.00 -9999.00 -9999.00 -9999.00 -9999.00 -9999.00 -9999.00 -9999.00 -9999.00 -9999.00 -9999.00 -9999.00 -9999.00 -9999.00 -9999.00 -9999.00 -9999.00 -9999.00 -9999.00 -9999.00 -9999.00 -9999.00 -9999.00 -9999.00 -9999.00
-9999.00 -9999.00 -9999.00 -9999.00 -9999.00 -9999.00 -9999.00 -9999.00 -9999.00 -9999.00 -9999.00 -9999.00 -9999.00 -9999.00 -9999.00 -9999.00 -9999.00 -9999.00 -9999.00 -9999.00 -9999.00 -9999.00 -9999.00 -9999.00 -9999.00 -9999.00 -9999.00 -9999.00 -9999.00 -9999.00 -9999.00 -9999.00 -9999.00 -9999.00 -9999.00 -9999.00 -9999.00 -9999.00 -9999.00 -9999.00 -9999.00 -2534.86 22.30 1229.92 1575.22 1634.46 1639.70 1638.91 1637.59 1635.98 1634.19 1632.38 1630.69 1629.09 1627.39 1625.55 1623.57 1621.63 1620.01 1618.88 1618.12 1617.50 1616.80 1615.83 1614.52 1612.92 1611.09 1609.16 1607.74 1607.91 1610.08 1613.50 1617.28 1620.88 1623.89 1626.24 1628.11 1629.74 1631.28 1632.55 1633.41 1633.91 1634.07 1633.87 1633.28 1632.30 1630.97 1629.40 1627.72 1625.85 1623.73 1621.44 1619.00 1616.44 1613.80 1611.17 1608.65 1606.20 1603.79 1601.45 1599.17 1596.93 1594.79 1592.75 1590.76 1588.86 1587.10 1585.52 1584.12 1582.85 1581.72 1580.87 1580.45 1580.38 1580.41 1580.25 1579.74 1578.74 1577.16 1574.92 1571.95 1568.48 1564.88 1561.30 1557.73 1554.21 1550.83 1547.86 1545.87 1545.49 1546.80 1549.09 1551.72 1554.41 1556.09 1522.73 1073.56 -1069.23 -9999.00 -9999.00 -9999.00 -9999.00 -9999.00 -9999.00 -9999.00 -9999.00 -9999.00 -9999.00 -9999.00 -9999.00 -9999.00 -9999.00 -9999.00 -9999.00 -9999.00 -9999.00 -9999.00 -9999.00 -9999.00 -9999.00 -9999.00 -9999.00 -9999.00 -9999.00 -9999.00 -9999.00 -9999.00 -9999.00 -9999.00 -9999.00
-9999.00 -9999.00 -9999.00 -9999.00 -9999.00 -9999.00 -9999.00 -9999.00 -9999.00 -9999.00 -9999.00 -9999.00 -9999.00 -9999.00 -9999.00 -9999.00 -9999.00 -9999.00 -9999.00 -9999.00 -9999.00 -9999.00 -9999.00 -9999.00 -9999.00 -9999.00 -9999.00 -9999.00 -9999.00 -9999.00 -9999.00 -9999.00 -9999.00 -9999.00 -9999.00 -9999.00 -9999.00 -9999.00 -9999.00 -9999.00 -2534.52 23.22 1231.05 1576.39 1635.69 1641.06 1640.35 1639.12 1637.73 1636.04 1634.16 1632.28 1630.55 1628.88 1627.03 1624.88 1622.42 1619.82 1617.55 1615.89 1614.72 1613.83 1612.98 1612.02 1610.89 1609.53 1607.92 1606.26 1605.46 1606.55 1609.36 1612.97 1616.78 1620.42 1623.47 1625.84 1627.68 1629.25 1630.73 1631.96 1632.80 1633.28 1633.41 1633.15 1632.49 1631.45 1630.09 1628.54 1626.84 1624.89 1622.68 1620.30 1617.75 1615.10 1612.42 1609.79 1607.24 1604.73 1602.23 1599.74 1597.31 1594.97 1592.72 1590.53 1588.38 1586.30 1584.35 1582.57 1580.93 1579.40 1578.01 1576.91 1576.27 1576.11 1576.27 1576.49 1576.52 1576.05 1574.75 1572.47 1569.31 1565.76 1562.18 1558.61 1555.04 1551.57 1548.55 1546.61 1546.27 1547.46 1549.60 1552.04 1554.48 1556.90 1557.93 1512.31 924.14 -1745.32 -9999.00 -9999.00 -9999.00 -9999.00 -9999.00 -9999.00 -9999.00 -9999.00 -9999.00 -9999.00 -9999.00 -9999.00 -9999.00 -9999.00 -9999.00 -9999.00 -9999.00 -9999.00 -9999.00 -9999.00 -9999.00 -9999.00 -9999.00 -9999.00 -9999.00 -9999.00 -9999.00 -9999.00 -9999.00 -9999.00 -9999.00 -9999.00
-9999.00 -9999.00 -9999.00 -9999.00 -9999.00 -9999.00 -9999.00 -9999.00 -9999.00 -9999.00 -9999.00 -9999.00 -9999.00 -9999.00 -9999.00 -9999.00 -9999.00 -9999.00 -9999.00 -9999.00 -9999.00 -9999.00 -9999.00 -9999.00 -9999.00 -9999.00 -9999.00 -9999.00 -9999.00 -9999.00 -9999.00 -9999.00 -9999.00 -9999.00 -9999.00 -9999.00 -9999.00 -9999.00 -9999.00 -2571.28 20.82 1231.92 1577.52 1636.87 1642.32 1641.75 1640.63 1639.38 1637.96 1636.26 1634.36 1632.44 1630.66 1628.97 1627.10 1624.86 1622.21 1619.29 1616.50 1614.19 1612.36 1610.88 1609.66 1608.56 1607.44 1606.16 1604.68 1603.37 1603.30 1605.23 1608.51 1612.21 1616.05 1619.77 1622.93 1625.36 1627.19 1628.68 1630.04 1631.20 1632.01 1632.47 1632.58 1632.27 1631.54 1630.44 1629.07 1627.53 1625.77 1623.70 1621.37 1618.86 1616.20 1613.46 1610.77 1608.13 1605.54 1602.94 1600.32 1597.67 1595.09 1592.59 1590.17 1587.79 1585.45 1583.15 1580.93 1578.82 1576.85 1575.03 1573.40 1572.08 1571.17 1570.71 1570.70 1571.09 1571.63 1571.87 1571.18 1569.22 1566.27 1562.93 1559.49 1556.00 1552.52 1549.39 1547.32 1546.98 1548.22 1550.37 1552.79 1555.14 1557.36 1559.54 1560.32 1511.86 892.48 -1895.00 -9999.00 -9999.00 -9999.00 -9999.00 -9999.00 -9999.00 -9999.00 -9999.00 -9999.00 -9999.00 -9999.00 -9999.00 -9999.00 -9999.00 -9999.00 -9999.00 -9999.00 -9999.00 -9999.00 -9999.00 -9999.00 -9999.00 -9999.00 -9999.00 -9999.00 -9999.00 -9999.00 -9999.00 -9999.00 -9999.00 -9999.00 -9999.00
-9999.00 -9999.00 -9999.00 -9999.00 -9999.00 -9999.00 -9999.00 -9999.00 -9999.00 -9999.00 -9999.00 -9999.00 -9999.00 -9999.00 -9999.00 -9999.00 -9999.00 -9999.00 -9999.00 -9999.00 -9999.00 -9999.00 -9999.00 -9999.00 -9999.00 -9999.00 -9999.00 -9999.00 -9999.00 -9999.00 -9999.00 -9999.00 -9999.00 -9999.00 -9999.00 -9999.00 -9999.00 -9999.00 -3438.67 -180.37 1214.32 1577.79 1637.97 1643.51 1643.03 1642.07 1640.95 1639.69 1638.28 1636.61 1634.74 1632.81 1631.02 1629.34 1627.51 1625.37 1622.88 1620.09 1617.21 1614.51 1612.04 1609.84 1607.95 1606.28 1604.69 1603.11 1601.58 1600.64 1601.30 1603.83 1607.37 1611.11 1614.96 1618.80 1622.15 1624.71 1626.57 1627.96 1629.16 1630.23 1631.01 1631.45 1631.51 1631.17 1630.40 1629.29 1627.95 1626.38 1624.50 1622.29 1619.82 1617.17 1614.39 1611.61 1608.90 1606.24 1603.57 1600.87 1598.12 1595.32 1592.56 1589.85 1587.19 1584.57 1581.95 1579.28 1576.60 1574.06 1571.78 1569.78 1568.06 1566.70 1565.74 1565.14 1564.97 1565.31 1566.06 1566.78 1566.75 1565.43 1563.01 1560.02 1556.81 1553.54 1550.43 1548.18 1547.67 1548.97 1551.24 1553.79 1556.25 1558.48 1560.51 1562.51 1563.15 1514.32 892.07 -1905.77 -9999.00 -9999.00 -9999.00 -9999.00 -9999.00 -9999.00 -9999.00 -9999.00 -9999.00 -9999.00 -9999.00 -9999.00 -9999.00 -9999.00 -9999.00 -9999.00 -9999.00 -9999.00 -9999.00 -9999.00 -9999.00 -9999.00 -9999.00 -9999.00 -9999.00 -9999.00 -9999.00 -9999.00 -9999.00 -9999.00 -9999.00 -9999.00
-9999.00 -9999.00 -9999.00 -9999.00 -9999.00 -9999.00 -9999.00 -9999.00 -9999.00 -9999.00 -9999.00 -9999.00 -9999.00 -9999.00 -9999.00 -9999.00 -9999.00 -9999.00 -9999.00 -9999.00 -9999.00 -9999.00 -9999.00 -9999.00 -9999.00 -9999.00 -9999.00 -9999.00 -9999.00 -9999.00 -9999.00 -9999.00 -9999.00 -9999.00 -9999.00 -9999.00 -9999.00 -9999.00 -2410.27 612.96 1505.90 1634.84 1644.52 1644.24 1643.38 1642.40 1641.30 1640.08 1638.70 1637.05 1635.22 1633.34 1631.55 1629.88 1628.15 1626.19 1623.97 1621.51 1618.87 1616.16 1613.44 1610.80 1608.29 1605.89 1603.52 1601.25 1599.35 1598.47 1599.46 1602.23 1605.83 1609.59 1613.45 1617.41 1621.00 1623.77 1625.71 1627.06 1628.12 1629.04 1629.76 1630.16 1630.19 1629.83 1629.10 1628.06 1626.73 1625.07 1623.03 1620.67 1618.07 1615.28 1612.41 1609.59 1606.85 1604.13 1601.38 1598.57 1595.69 1592.76 1589.81 1586.85 1583.89 1580.94 1577.87 1574.65 1571.42 1568.47 1566.03 1564.08 1562.51 1561.34 1560.54 1560.00 1559.78 1559.99 1560.66 1561.55 1561.98 1561.31 1559.50 1556.97 1554.18 1551.39 1549.08 1548.22 1549.39 1551.90 1554.73 1557.44 1559.92 1562.07 1563.98 1565.85 1566.35 1517.21 894.18 -1905.01 -9999.00 -9999.00 -9999.00 -9999.00 -9999.00 -9999.00 -9999.00 -9999.00 -9999.00 -9999.00 -9999.00 -9999.00 -9999.00 -9999.00 -9999.00 -9999.00 -9999.00 -9999.00 -9999.00 -9999.00 -9999.00 -9999.00 -9999.00 -9999.00 -9999.00 -9999.00 -9999.00 -9999.00 -9999.00 -9999.00 -9999.00 -9999.00
-9999.00 -9999.00 -9999.00 -9999.00 -9999.00 -9999.00 -9999.00 -9999.00 -9999.00 -9999.00 -9999.00 -9999.00 -9999.00 -9999.00 -9999.00 -9999.00 -9999.00 -9999.00 -9999.00 -9999.00 -9999.00 -9999.00 -9999.00 -9999.00 -9999.00 -9999.00 -9999.00 -9999.00 -9999.00 -9999.00 -9999.00 -9999.00 -9999.00 -9999.00 -9999.00 -9999.00 -9999.00 -9999.00 -3270.93 104.45 1401.10 1628.61 1644.86 1644.58 1643.71 1642.74 1641.67 1640.51 1639.17 1637.56 1635.77 1633.93 1632.16 1630.51 1628.87 1627.09 1625.12 1622.96 1620.63 1618.10 1615.43 1612.69 1609.91 1607.08 1604.17 1601.27 1598.71 1597.26 1597.85 1600.38 1603.89 1607.64 1611.49 1615.49 1619.30 1622.35 1624.47 1625.90 1626.94 1627.75 1628.35 1628.68 1628.69 1628.37 1627.74 1626.78 1625.41 1623.58 1621.38 1618.88 1616.13 1613.23 1610.32 1607.47 1604.68 1601.89 1599.05 1596.13 1593.13 1590.07 1586.93 1583.69 1580.38 1576.98 1573.39 1569.63 1566.02 1563.02 1560.84 1559.31 1558.18 1557.37 1556.81 1556.35 1556.00 1555.87 1556.13 1556.73 1557.22 1556.97 1555.77 1553.89 1551.73 1549.71 1548.61 1549.36 1551.89 1555.15 1558.32 1561.17 1563.67 1565.82 1567.68 1569.46 1569.57 1517.61 884.48 -1923.61 -9999.00 -9999.00 -9999.00 -9999.00 -9999.00 -9999.00 -9999.00 -9999.00 -9999.00 -9999.00 -9999.00 -9999.00 -9999.00 -9999.00 -9999.00 -9999.00 -9999.00 -9999.00 -9999.00 -9999.00 -9999.00 -9999.00 -9999.00 -9999.00 -9999.00 -9999.00 -9999.00 -9999.00 -9999.00 -9999.00 -9999.00 -9999.00
-9999.00 -9999.00 -9999.00 -9999.00 -9999.00 -9999.00 -9999.00 -9999.00 -9999.00 -9999.00 -9999.00 -9999.00 -9999.00 -9999.00 -9999.00 -9999.00 -9999.00 -9999.00 -9999.00 -9999.00 -9999.00 -9999.00 -9999.00 -9999.00 -9999.00 -9999.00 -9999.00 -9999.00 -9999.00 -9999.00 -9999.00 -9999.00 -9999.00 -9999.00 -9999.00 -9999.00 -9999.00 -9999.00 -9999.00 -1006.48 1153.67 1608.62 1644.56 1644.89 1644.02 1643.07 1642.03 1640.91 1639.62 1638.07 1636.34 1634.54 1632.77 1631.12 1629.55 1627.93 1626.16 1624.23 1622.14 1619.83 1617.31 1614.62 1611.80 1608.85 1605.75 1602.50 1599.34 1597.01 1596.59 1598.42 1601.67 1605.37 1609.15 1613.05 1616.93 1620.27 1622.70 1624.37 1625.55 1626.38 1626.92 1627.20 1627.21 1626.96 1626.41 1625.44 1623.97 1622.00 1619.64 1616.96 1614.06 1611.09 1608.16 1605.28 1602.43 1599.56 1596.63 1593.62 1590.52 1587.32 1583.97 1580.44 1576.73 1572.88 1568.90 1564.99 1561.67 1559.41 1558.18 1557.51 1557.05 1556.72 1556.41 1555.92 1555.22 1554.46 1553.86 1553.61 1553.56 1553.31 1552.56 1551.36 1549.97 1548.92 1549.15 1551.25 1554.67 1558.39 1561.83 1564.85 1567.44 1569.60 1571.43 1573.03 1570.21 1486.68 735.29 -2171.61 -9999.00 -9999.00 -9999.00 -9999.00 -9999.00 -9999.00 -9999.00 -9999.00 -9999.00 -9999.00 -9999.00 -9999.00 -9999.00 -9999.00 -9999.00 -9999.00 -9999.00 -9999.00 -9999.00 -9999.00 -9999.00 -9999.00 -9999.00 -9999.00 -9999.00 -9999.00 -9999.00 -9999.00 -9999.00 -9999.00 -9999.00 -9999.00
-9999.00 -9999.00 -9999.00 -9999.00 -9999.00 -9999.00 -9999.00 -9999.00 -9999.00 -9999.00 -9999.00 -9999.00 -9999.00 -9999.00 -9999.00 -9999.00 -9999.00 -9999.00 -9999.00 -9999.00 -9999.00 -9999.00 -9999.00 -9999.00 -9999.00 -9999.00 -9999.00 -9999.00 -9999.00 -9999.00 -9999.00 -9999.00 -9999.00 -9999.00 -9999.00 -9999.00 -9999.00 -9999.00 -9999.00 -1687.87 1001.78 1596.35 1644.43 1645.15 1644.31 1643.37 1642.34 1641.24 1639.99 1638.49 1636.83 1635.07 1633.30 1631.65 1630.13 1628.60 1626.99 1625.25 1623.34 1621.22 1618.86 1616.28 1613.47 1610.48 1607.30 1603.90 1600.38 1597.31 1595.77 1596.60 1599.34 1602.87 1606.51 1610.20 1613.93 1617.41 1620.23 1622.33 1623.82 1624.81 1625.41 1625.70 1625.74 1625.54 1625.01 1624.01 1622.46 1620.38 1617.86 1614.99 1611.96 1608.94 1605.98 1603.04 1600.10 1597.14 1594.14 1591.07 1587.89 1584.53 1580.94 1577.10 1573.07 1568.96 1564.98 1561.67 1559.64 1558.94 1558.99 1559.22 1559.39 1559.45 1559.28 1558.65 1557.53 1556.07 1554.56 1553.30 1552.42 1551.77 1551.13 1550.43 1549.81 1549.67 1550.78 1553.57 1557.42 1561.43 1565.15 1568.40 1571.09 1573.26 1575.04 1575.97 1558.38 1326.00 39.20 -3300.46 -9999.00 -9999.00 -9999.00 -9999.00 -9999.00 -9999.00 -9999.00 -9999.00 -9999.00 -9999.00 -9999.00 -9999.00 -9999.00 -9999.00 -9999.00 -9999.00 -9999.00 -9999.00 -9999.00 -9999.00 -9999.00 -9999.00 -9999.00 -9999.00 -9999.00 -9999.00 -9999.00 -9999.00 -9999.00 -9999.00 -9999.00 -9999.00
-9999.00 -9999.00 -9999.00 -9999.00 -9999.00 -9999.00 -9999.00 -9999.00 -9999.00 -9999.00 -9999.00 -9999.00 -9999.00 -9999.00 -9999.00 -9999.00 -9999.00 -9999.00 -9999.00 -9999.00 -9999.00 -9999.00 -9999.00 -9999.00 -9999.00 -9999.00 -9999.00 -9999.00 -9999.00 -9999.00 -9999.00 -9999.00 -9999.00 -9999.00 -9999.00 -9999.00 -9999.00 -9999.00 -9999.00 -1839.96 967.94 1593.73 1644.54 1645.37 1644.54 1643.61 1642.58 1641.48 1640.23 1638.75 1637.12 1635.40 1633.65 1632.01 1630.52 1629.07 1627.58 1626.00 1624.24 1622.26 1620.06 1617.58 1614.80 1611.76 1608.51 1605.05 1601.39 1597.87 1595.40 1595.09 1597.05 1600.20 1603.64 1607.09 1610.55 1613.94 1617.05 1619.67 1621.60 1622.86 1623.61 1624.00 1624.10 1623.96 1623.46 1622.46 1620.86 1618.70 1616.02 1613.01 1609.90 1606.83 1603.81 1600.79 1597.74 1594.70 1591.67 1588.54 1585.23 1581.64 1577.76 1573.68 1569.53 1565.54 1562.25 1560.44 1560.34 1561.22 1562.23 1562.99 1563.49 1563.67 1563.41 1562.55 1561.12 1559.31 1557.32 1555.47 1553.99 1552.95 1552.28 1551.94 1551.93 1552.26 1553.43 1556.08 1559.96 1564.20 1568.21 1571.72 1574.55 1576.71 1578.34 1575.79 1506.89 927.36 -1326.61 -9999.00 -9999.00 -9999.00 -9999.00 -9999.00 -9999.00 -9999.00 -9999.00 -9999.00 -9999.00 -9999.00 -9999.00 -9999.00 -9999.00 -9999.00 -9999.00 -9999.00 -9999.00 -9999.00 -9999.00 -9999.00 -9999.00 -9999.00 -9999.00 -9999.00 -9999.00 -9999.00 -9999.00 -9999.00 -9999.00 -9999.00 -9999.00 -9999.00
-9999.00 -9999.00 -9999.00 -9999.00 -9999.00 -9999.00 -9999.00 -9999.00 -9999.00 -9999.00 -9999.00 -9999.00 -9999.00 -9999.00 -9999.00 -9999.00 -9999.00 -9999.00 -9999.00 -9999.00 -9999.00 -9999.00 -9999.00 -9999.00 -9999.00 -9999.00 -9999.00 -9999.00 -9999.00 -9999.00 -9999.00 -9999.00 -9999.00 -9999.00 -9999.00 -9999.00 -9999.00 -9999.00 -9999.00 -1852.41 965.22 1593.61 1644.68 1645.53 1644.70 1643.75 1642.69 1641.54 1640.26 1638.76 1637.13 1635.44 1633.73 1632.11 1630.66 1629.28 1627.89 1626.45 1624.83 1622.99 1620.93 1618.55 1615.80 1612.74 1609.45 1605.97 1602.30 1598.58 1595.45 1594.02 1594.92 1597.48 1600.64 1603.91 1607.14 1610.32 1613.46 1616.39 1618.72 1620.28 1621.26 1621.82 1622.08 1622.08 1621.70 1620.76 1619.16 1616.91 1614.12 1611.03 1607.89 1604.78 1601.68 1598.54 1595.38 1592.26 1589.15 1585.93 1582.42 1578.55 1574.41 1570.23 1566.27 1563.03 1561.28 1561.49 1563.11 1565.00 1566.47 1567.45 1568.01 1568.10 1567.61 1566.51 1564.92 1563.03 1561.02 1559.10 1557.50 1556.37 1555.79 1555.71 1555.95 1556.23 1556.84 1558.80 1562.41 1566.76 1571.02 1574.77 1577.72 1579.86 1580.82 1563.24 1333.57 79.71 -3133.86 -9999.00 -9999.00 -9999.00 -9999.00 -9999.00 -9999.00 -9999.00 -9999.00 -9999.00 -9999.00 -9999.00 -9999.00 -9999.00 -9999.00 -9999.00 -9999.00 -9999.00 -9999.00 -9999.00 -9999.00 -9999.00 -9999.00 -9999.00 -9999.00 -9999.00 -9999.00 -9999.00 -9999.00 -9999.00 -9999.00 -9999.00 -9999.00 -9999.00
-9999.00 -9999.00 -9999.00 -9999.00 -9999.00 -9999.00 -9999.00 -9999.00 -9999.00 -9999.00 -9999.00 -9999.00 -9999.00 -9999.00 -9999.00 -9999.00 -9999.00 -9999.00 -9999.00 -9999.00 -9999.00 -9999.00 -9999.00 -9999.00 -9999.00 -9999.00 -9999.00 -9999.00 -9999.00 -9999.00 -9999.00 -9999.00 -9999.00 -9999.00 -9999.00 -9999.00 -9999.00 -9999.00 -9999.00 -1852.75 965.20 1593.69 1644.76 1645.61 1644.75 1643.74 1642.61 1641.38 1640.02 1638.46 1636.81 1635.14 1633.48 1631.91 1630.49 1629.18 1627.91 1626.59 1625.11 1623.42 1621.48 1619.20 1616.54 1613.51 1610.20 1606.75 1603.13 1599.38 1595.88 1593.49 1593.17 1594.87 1597.65 1600.74 1603.84 1606.84 1609.80 1612.65 1615.08 1616.86 1618.08 1618.92 1619.49 1619.78 1619.63 1618.83 1617.25 1614.94 1612.10 1609.03 1605.91 1602.75 1599.54 1596.26 1592.96 1589.71 1586.45 1583.02 1579.24 1575.13 1570.89 1566.91 1563.70 1561.95 1562.25 1564.32 1567.03 1569.35 1570.96 1571.96 1572.44 1572.40 1571.76 1570.53 1568.89 1567.05 1565.18 1563.46 1562.04 1561.08 1560.66 1560.72 1560.94 1560.88 1560.72 1561.78 1564.90 1569.21 1573.59 1577.44 1580.41 1582.48 1580.19 1511.64 932.40 -1320.07 -9999.00 -9999.00 -9999.00 -9999.00 -9999.00 -9999.00 -9999.00 -9999.00 -9999.00 -9999.00 -9999.00 -9999.00 -9999.00 -9999.00 -9999.00 -9999.00 -9999.00 -9999.00 -9999.00 -9999.00 -9999.00 -9999.00 -9999.00 -9999.00 -9999.00 -9999.00 -9999.00 -9999.00 -9999.00 -9999.00 -9999.00 -9999.00 -9999.00 -9999.00
-9999.00 -9999.00 -9999.00 -9999.00 -9999.00 -9999.00 -9999.00 -9999.00 -9999.00 -9999.00 -9999.00 -9999.00 -9999.00 -9999.00 -9999.00 -9999.00 -9999.00 -9999.00 -9999.00 -9999.00 -9999.00 -9999.00 -9999.00 -9999.00 -9999.00 -9999.00 -9999.00 -9999.00 -9999.00 -9999.00 -9999.00 -9999.00 -9999.00 -9999.00 -9999.00 -9999.00 -9999.00 -9999.00 -9999.00 -1852.70 965.27 1593.74 1644.80 1645.61 1644.69 1643.59 1642.33 1640.98 1639.50 1637.84 1636.13 1634.46 1632.85 1631.33 1629.96 1628.72 1627.55 1626.36 1625.03 1623.49 1621.69 1619.57 1617.07 1614.13 1610.86 1607.43 1603.88 1600.20 1596.58 1593.55 1592.04 1592.62 1594.78 1597.62 1600.60 1603.48 1606.24 1608.82 1611.08 1612.86 1614.24 1615.36 1616.29 1616.95 1617.09 1616.47 1614.97 1612.69 1609.94 1606.97 1603.88 1600.68 1597.35 1593.92 1590.47 1587.01 1583.48 1579.72 1575.66 1571.44 1567.44 1564.29 1562.58 1562.80 1564.95 1568.20 1571.35 1573.69 1575.19 1576.06 1576.44 1576.34 1575.72 1574.59 1573.08 1571.39 1569.71 1568.21 1567.04 1566.31 1566.06 1566.17 1566.24 1565.73 1564.80 1564.94 1567.47 1571.59 1575.90 1579.64 1582.55 1584.34 1569.76 1350.19 104.36 -3118.51 -9999.00 -9999.00 -9999.00 -9999.00 -9999.00 -9999.00 -9999.00 -9999.00 -9999.00 -9999.00 -9999.00 -9999.00 -9999.00 -9999.00 -9999.00 -9999.00 -9999.00 -9999.00 -9999.00 -9999.00 -9999.00 -9999.00 -9999.00 -9999.00 -9999.00 -9999.00 -9999.00 -9999.00 -9999.00 -9999.00 -9999.00 -9999.00 -9999.00 -9999.00
-9999.00 -9999.00 -9999.00 -9999.00 -9999.00 -9999.00 -9999.00 -9999.00 -9999.00 -9999.00 -9999.00 -9999.00 -9999.00 -9999.00 -9999.00 -9999.00 -9999.00 -9999.00 -9999.00 -9999.00 -9999.00 -9999.00 -9999.00 -9999.00 -9999.00 -9999.00 -9999.00 -9999.00 -9999.00 -9999.00 -9999.00 -9999.00 -9999.00 -9999.00 -9999.00 -9999.00 -9999.00 -9999.00 -9999.00 -1852.65 965.33 1593.78 1644.80 1645.57 1644.56 1643.32 1641.91 1640.38 1638.74 1636.95 1635.16 1633.46 1631.86 1630.37 1629.02 1627.82 1626.71 1625.62 1624.45 1623.10 1621.52 1619.63 1617.33 1614.54 1611.36 1607.99 1604.52 1600.95 1597.35 1594.03 1591.62 1590.96 1592.20 1594.61 1597.41 1600.18 1602.79 1605.16 1607.22 1608.92 1610.32 1611.56 1612.67 1613.55 1613.95 1613.56 1612.26 1610.20 1607.65 1604.79 1601.73 1598.49 1595.07 1591.54 1587.93 1584.20 1580.31 1576.21 1571.97 1567.97 1564.89 1563.33 1563.58 1565.60 1568.90 1572.50 1575.48 1577.50 1578.76 1579.50 1579.84 1579.79 1579.33 1578.46 1577.28 1575.90 1574.49 1573.23 1572.30 1571.76 1571.61 1571.67 1571.44 1570.43 1568.81 1568.14 1570.05 1573.83 1577.91 1581.44 1584.29 1585.58 1551.18 1099.78 -1046.55 -9999.00 -9999.00 -9999.00 -9999.00 -9999.00 -9999.00 -9999.00 -9999.00 -9999.00 -9999.00 -9999.00 -9999.00 -9999.00 -9999.00 -9999.00 -9999.00 -9999.00 -9999.00 -9999.00 -9999.00 -9999.00 -9999.00 -9999.00 -9999.00 -9999.00 -9999.00 -9999.00 -9999.00 -9999.00 -9999.00 -9999.00 -9999.00 -9999.00 -9999.00 -9999.00
-9999.00 -9999.00 -9999.00 -9999.00 -9999.00 -9999.00 -9999.00 -9999.00 -9999.00 -9999.00 -9999.00 -9999.00 -9999.00 -9999.00 -9999.00 -9999.00 -9999.00 -9999.00 -9999.00 -9999.00 -9999.00 -9999.00 -9999.00 -9999.00 -9999.00 -9999.00 -9999.00 -9999.00 -9999.00 -9999.00 -9999.00 -9999.00 -9999.00 -9999.00 -9999.00 -9999.00 -9999.00 -9999.00 -9999.00 -1852.61 965.35 1593.77 1644.77 1645.49 1644.37 1642.98 1641.39 1639.67 1637.83 1635.89 1633.99 1632.23 1630.57 1629.03 1627.63 1626.39 1625.29 1624.28 1623.27 1622.17 1620.87 1619.24 1617.15 1614.54 1611.54 1608.33 1605.00 1601.54 1598.04 1594.66 1591.76 1590.02 1590.08 1591.78 1594.29 1596.92 1599.39 1601.60 1603.53 1605.16 1606.55 1607.82 1608.99 1609.96 1610.51 1610.35 1609.35 1607.58 1605.24 1602.48 1599.44 1596.19 1592.76 1589.17 1585.40 1581.38 1577.13 1572.80 1568.70 1565.56 1564.11 1564.51 1566.51 1569.70 1573.36 1576.62 1579.01 1580.60 1581.63 1582.32 1582.69 1582.77 1582.54 1582.00 1581.22 1580.25 1579.19 1578.21 1577.44 1576.97 1576.76 1576.57 1575.94 1574.50 1572.45 1571.25 1572.55 1575.90 1579.65 1582.95 1585.77 1586.77 1540.40 949.79 -1726.59 -9999.00 -9999.00 -9999.00 -9999.00 -9999.00 -9999.00 -9999.00 -9999.00 -9999.00 -9999.00 -9999.00 -9999.00 -9999.00 -9999.00 -9999.00 -9999.00 -9999.00 -9999.00 -9999.00 -9999.00 -9999.00 -9999.00 -9999.00 -9999.00 -9999.00 -9999.00 -9999.00 -9999.00 -9999.00 -9999.00 -9999.00 -9999.00 -9999.00 -9999.00 -9999.00
-9999.00 -9999.00 -9999.00 -9999.00 -9999.00 -9999.00 -9999.00 -9999.00 -9999.00 -9999.00 -9999.00 -9999.00 -9999.00 -9999.00 -9999.00 -9999.00 -9999.00 -9999.00 -9999.00 -9999.00 -9999.00 -9999.00 -9999.00 -9999.00 -9999.00 -9999.00 -9999.00 -9999.00 -9999.00 -9999.00 -9999.00 -9999.00 -9999.00 -9999.00 -9999.00 -9999.00 -9999.00 -9999.00 -9999.00 -1852.63 965.31 1593.71 1644.67 1645.32 1644.10 1642.58 1640.83 1638.93 1636.90 1634.80 1632.78 1630.88 1629.06 1627.36 1625.81 1624.44 1623.28 1622.31 1621.46 1620.61 1619.61 1618.23 1616.33 1613.94 1611.20 1608.27 1605.15 1601.82 1598.45 1595.19 1592.16 1589.71 1588.60 1589.28 1591.29 1593.71 1596.00 1598.03 1599.83 1601.42 1602.85 1604.18 1605.43 1606.49 1607.16 1607.19 1606.42 1604.89 1602.71 1600.05 1597.06 1593.86 1590.46 1586.82 1582.86 1578.55 1574.06 1569.78 1566.44 1564.88 1565.36 1567.44 1570.56 1574.15 1577.53 1580.14 1581.98 1583.27 1584.20 1584.87 1585.31 1585.53 1585.51 1585.26 1584.80 1584.19 1583.47 1582.70 1582.01 1581.44 1580.94 1580.33 1579.32 1577.68 1575.57 1574.10 1574.86 1577.72 1581.11 1584.21 1587.01 1587.98 1539.00 917.39 -1876.98 -9999.00 -9999.00 -9999.00 -9999.00 -9999.00 -9999.00 -9999.00 -9999.00 -9999.00 -9999.00 -9999.00 -9999.00 -9999.00 -9999.00 -9999.00 -9999.00 -9999.00 -9999.00 -9999.00 -9999.00 -9999.00 -9999.00 -9999.00 -9999.00 -9999.00 -9999.00 -9999.00 -9999.00 -9999.00 -9999.00 -9999.00 -9999.00 -9999.00 -9999.00 -9999.00
-9999.00 -9999.00 -9999.00 -9999.00 -9999.00 -9999.00 -9999.00 -9999.00 -9999.00 -9999.00 -9999.00 -9999.00 -9999.00 -9999.00 -9999.00 -9999.00 -9999.00 -9999.00 -9999.00 -9999.00 -9999.00 -9999.00 -9999.00 -9999.00 -9999.00 -9999.00 -9999.00 -9999.00 -9999.00 -9999.00 -9999.00 -9999.00 -9999.00 -9999.00 -9999.00 -9999.00 -9999.00 -9999.00 -9999.00 -1852.69 965.22 1593.59 1644.52 1645.10 1643.78 1642.15 1640.29 1638.24 1636.07 1633.85 1631.68 1629.56 1627.48 1625.50 1623.68 1622.04 1620.69 1619.68 1618.94 1618.31 1617.57 1616.42 1614.74 1612.61 1610.19 1607.58 1604.71 1601.57 1598.41 1595.37 1592.46 1589.74 1587.76 1587.33 1588.55 1590.56 1592.60 1594.44 1596.11 1597.67 1599.15 1600.56 1601.91 1603.08 1603.87 1604.04 1603.45 1602.09 1600.08 1597.54 1594.67 1591.56 1588.17 1584.44 1580.29 1575.77 1571.27 1567.54 1565.65 1566.04 1568.21 1571.37 1574.91 1578.28 1581.06 1583.14 1584.68 1585.87 1586.77 1587.45 1587.93 1588.25 1588.36 1588.28 1588.03 1587.64 1587.13 1586.49 1585.78 1585.00 1584.10 1583.03 1581.71 1580.06 1578.12 1576.62 1576.93 1579.27 1582.32 1585.27 1588.05 1589.04 1539.91 915.81 -1888.44 -9999.00 -9999.00 -9999.00 -9999.00 -9999.00 -9999.00 -9999.00 -9999.00 -9999.00 -9999.00 -9999.00 -9999.00 -9999.00 -9999.00 -9999.00 -9999.00 -9999.00 -9999.00 -9999.00 -9999.00 -9999.00 -9999.00 -9999.00 -9999.00 -9999.00 -9999.00 -9999.00 -9999.00 -9999.00 -9999.00 -9999.00 -9999.00 -9999.00 -9999.00 -9999.00
-9999.00 -9999.00 -9999.00 -9999.00 -9999.00 -9999.00 -9999.00 -9999.00 -9999.00 -9999.00 -9999.00 -9999.00 -9999.00 -9999.00 -9999.00 -9999.00 -9999.00 -9999.00 -9999.00 -9999.00 -9999.00 -9999.00 -9999.00 -9999.00 -9999.00 -9999.00 -9999.00 -9999.00 -9999.00 -9999.00 -9999.00 -9999.00 -9999.00 -9999.00 -9999.00 -9999.00 -9999.00 -9999.00 -9999.00 -1852.40 965.18 1593.47 1644.36 1644.87 1643.46 1641.73 1639.78 1637.64 1635.38 1633.09 1630.78 1628.40 1625.99 1623.64 1621.36 1619.29 1617.64 1616.50 1615.77 1615.26 1614.70 1613.78 1612.38 1610.57 1608.48 1606.15 1603.52 1600.65 1597.78 1595.05 1592.39 1589.74 1587.37 1586.03 1586.24 1587.54 1589.17 1590.79 1592.37 1593.92 1595.43 1596.93 1598.38 1599.64 1600.53 1600.83 1600.40 1599.22 1597.37 1595.02 1592.31 1589.28 1585.89 1582.05 1577.74 1573.19 1569.07 1566.49 1566.44 1568.61 1571.92 1575.55 1578.95 1581.80 1584.08 1585.88 1587.33 1588.47 1589.34 1590.00 1590.49 1590.84 1591.02 1591.02 1590.87 1590.60 1590.17 1589.56 1588.78 1587.78 1586.54 1585.09 1583.52 1581.85 1580.10 1578.73 1578.80 1580.68 1583.39 1586.20 1588.94 1589.95 1540.88 916.77 -1887.97 -9999.00 -9999.00 -9999.00 -9999.00 -9999.00 -9999.00 -9999.00 -9999.00 -9999.00 -9999.00 -9999.00 -9999.00 -9999.00 -9999.00 -9999.00 -9999.00 -9999.00 -9999.00 -9999.00 -9999.00 -9999.00 -9999.00 -9999.00 -9999.00 -9999.00 -9999.00 -9999.00 -9999.00 -9999.00 -9999.00 -9999.00 -9999.00 -9999.00 -9999.00 -9999.00
-9999.00 -9999.00 -9999.00 -9999.00 -9999.00 -9999.00 -9999.00 -9999.00 -9999.00 -9999.00 -9999.00 -9999.00 -9999.00 -9999.00 -9999.00 -9999.00 -9999.00 -9999.00 -9999.00 -9999.00 -9999.00 -9999.00 -9999.00 -9999.00 -9999.00 -9999.00 -9999.00 -9999.00 -9999.00 -9999.00 -9999.00 -9999.00 -9999.00 -9999.00 -9999.00 -9999.00 -9999.00 -9999.00 -9999.00 -1839.98 967.87 1593.58 1644.22 1644.67 1643.18 1641.37 1639.35 1637.15 1634.85 1632.52 1630.11 1627.53 1624.83 1622.03 1619.19 1616.59 1614.58 1613.21 1612.35 1611.82 1611.35 1610.63 1609.51 1607.98 1606.12 1603.97 1601.56 1599.03 1596.53 1594.15 1591.80 1589.40 1587.06 1585.27 1584.56 1584.93 1585.88 1587.12 1588.56 1590.10 1591.68 1593.28 1594.83 1596.19 1597.17 1597.59 1597.32 1596.32 1594.68 1592.55 1590.02 1587.06 1583.63 1579.67 1575.29 1570.95 1567.67 1566.74 1568.51 1571.92 1575.71 1579.27 1582.28 1584.72 1586.76 1588.47 1589.85 1590.94 1591.78 1592.44 1592.95 1593.31 1593.51 1593.55 1593.46 1593.20 1592.75 1592.05 1591.11 1589.92 1588.46 1586.78 1585.02 1583.28 1581.62 1580.44 1580.52 1582.08 1584.47 1587.12 1589.77 1590.77 1541.77 917.69 -1887.24 -9999.00 -9999.00 -9999.00 -9999.00 -9999.00 -9999.00 -9999.00 -9999.00 -9999.00 -9999.00 -9999.00 -9999.00 -9999.00 -9999.00 -9999.00 -9999.00 -9999.00 -9999.00 -9999.00 -9999.00 -9999.00 -9999.00 -9999.00 -9999.00 -9999.00 -9999.00 -9999.00 -9999.00 -9999.00 -9999.00 -9999.00 -9999.00 -9999.00 -9999.00 -9999.00
-9999.00 -9999.00 -9999.00 -9999.00 -9999.00 -9999.00 -9999.00 -9999.00 -9999.00 -9999.00 -9999.00 -9999.00 -9999.00 -9999.00 -9999.00 -9999.00 -9999.00 -9999.00 -9999.00 -9999.00 -9999.00 -9999.00 -9999.00 -9999.00 -9999.00 -9999.00 -9999.00 -9999.00 -9999.00 -9999.00 -9999.00 -9999.00 -9999.00 -9999.00 -9999.00 -9999.00 -9999.00 -9999.00 -9999.00 -1687.87 1001.75 1596.27 1644.20 1644.55 1643.03 1641.17 1639.11 1636.89 1634.58 1632.26 1629.78 1627.08 1624.19 1621.08 1617.83 1614.78 1612.31 1610.48 1609.22 1608.44 1607.91 1607.29 1606.32 1604.94 1603.18 1601.17 1599.00 1596.80 1594.68 1592.66 1590.66 1588.62 1586.58 1584.84 1583.70 1583.25 1583.36 1583.92 1584.94 1586.32 1587.92 1589.63 1591.31 1592.78 1593.85 1594.38 1594.27 1593.47 1592.05 1590.14 1587.76 1584.86 1581.37 1577.32 1572.99 1569.18 1567.24 1568.15 1571.37 1575.38 1579.13 1582.33 1585.00 1587.27 1589.23 1590.88 1592.23 1593.31 1594.17 1594.85 1595.37 1595.74 1595.95 1596.01 1595.92 1595.62 1595.06 1594.19 1593.03 1591.61 1589.98 1588.17 1586.27 1584.47 1582.92 1582.01 1582.25 1583.63 1585.73 1588.16 1590.69 1591.64 1542.66 918.60 -1886.54 -9999.00 -9999.00 -9999.00 -9999.00 -9999.00 -9999.00 -9999.00 -9999.00 -9999.00 -9999.00 -9999.00 -9999.00 -9999.00 -9999.00 -9999.00 -9999.00 -9999.00 -9999.00 -9999.00 -9999.00 -9999.00 -9999.00 -9999.00 -9999.00 -9999.00 -9999.00 -9999.00 -9999.00 -9999.00 -9999.00 -9999.00 -9999.00 -9999.00 -9999.00 -9999.00
-9999.00 -9999.00 -9999.00 -9999.00 -9999.00 -9999.00 -9999.00 -9999.00 -9999.00 -9999.00 -9999.00 -9999.00 -9999.00 -9999.00 -9999.00 -9999.00 -9999.00 -9999.00 -9999.00 -9999.00 -9999.00 -9999.00 -9999.00 -9999.00 -9999.00 -9999.00 -9999.00 -9999.00 -9999.00 -9999.00 -9999.00 -9999.00 -9999.00 -9999.00 -9999.00 -9999.00 -9999.00 -9999.00 -9999.00 -1006.03 1153.82 1608.69 1644.53 1644.54 1643.05 1641.20 1639.13 1636.90 1634.64 1632.35 1629.84 1627.12 1624.22 1621.11 1617.82 1614.59 1611.66 1609.13 1607.10 1605.64 1604.67 1603.85 1602.87 1601.53 1599.87 1598.02 1596.12 1594.25 1592.47 1590.83 1589.26 1587.68 1586.14 1584.82 1583.82 1583.08 1582.52 1582.20 1582.32 1583.05 1584.35 1586.04 1587.83 1589.42 1590.60 1591.24 1591.28 1590.68 1589.47 1587.75 1585.50 1582.60 1579.03 1574.94 1570.89 1568.10 1567.91 1570.50 1574.54 1578.59 1582.06 1584.95 1587.45 1589.64 1591.57 1593.23 1594.61 1595.72 1596.61 1597.32 1597.86 1598.24 1598.45 1598.49 1598.36 1597.97 1597.24 1596.16 1594.74 1593.05 1591.22 1589.28 1587.31 1585.52 1584.22 1583.73 1584.25 1585.54 1587.35 1589.52 1591.88 1592.74 1543.74 919.61 -1885.79 -9999.00 -9999.00 -9999.00 -9999.00 -9999.00 -9999.00 -9999.00 -9999.00 -9999.00 -9999.00 -9999.00 -9999.00 -9999.00 -9999.00 -9999.00 -9999.00 -9999.00 -9999.00 -9999.00 -9999.00 -9999.00 -9999.00 -9999.00 -9999.00 -9999.00 -9999.00 -9999.00 -9999.00 -9999.00 -9999.00 -9999.00 -9999.00 -9999.00 -9999.00 -9999.00
-9999.00 -9999.00 -9999.00 -9999.00 -9999.00 -9999.00 -9999.00 -9999.00 -9999.00 -9999.00 -9999.00 -9999.00 -9999.00 -9999.00 -9999.00 -9999.00 -9999.00 -9999.00 -9999.00 -9999.00 -9999.00 -9999.00 -9999.00 -9999.00 -9999.00 -9999.00 -9999.00 -9999.00 -9999.00 -9999.00 -9999.00 -9999.00 -9999.00 -9999.00 -9999.00 -9999.00 -9999.00 -9999.00 -3249.19 118.12 1404.57 1629.20 1645.15 1644.63 1643.24 1641.45 1639.39 1637.18 1634.95 1632.69 1630.22 1627.57 1624.80 1621.89 1618.81 1615.61 1612.40 1609.30 1606.47 1604.07 1602.19 1600.73 1599.47 1598.12 1596.60 1595.02 1593.50 1592.05 1590.74 1589.59 1588.53 1587.50 1586.54 1585.75 1585.10 1584.42 1583.55 1582.51 1581.58 1581.14 1581.49 1582.70 1584.43 1586.13 1587.43 1588.18 1588.35 1587.91 1586.92 1585.37 1583.19 1580.24 1576.58 1572.58 1569.23 1568.01 1569.70 1573.46 1577.71 1581.48 1584.65 1587.38 1589.80 1591.97 1593.92 1595.64 1597.07 1598.24 1599.19 1599.92 1600.45 1600.80 1600.98 1600.99 1600.77 1600.24 1599.32 1597.99 1596.29 1594.33 1592.27 1590.20 1588.20 1586.55 1585.66 1585.73 1586.57 1587.82 1589.39 1591.30 1593.47 1594.21 1545.11 920.85 -1884.90 -9999.00 -9999.00 -9999.00 -9999.00 -9999.00 -9999.00 -9999.00 -9999.00 -9999.00 -9999.00 -9999.00 -9999.00 -9999.00 -9999.00 -9999.00 -9999.00 -9999.00 -9999.00 -9999.00 -9999.00 -9999.00 -9999.00 -9999.00 -9999.00 -9999.00 -9999.00 -9999.00 -9999.00 -9999.00 -9999.00 -9999.00 -9999.00 -9999.00 -9999.00 -9999.00
-9999.00 -9999.00 -9999.00 -9999.00 -9999.00 -9999.00 -9999.00 -9999.00 -9999.00 -9999.00 -9999.00 -9999.00 -9999.00 -9999.00 -9999.00 -9999.00 -9999.00 -9999.00 -9999.00 -9999.00 -9999.00 -9999.00 -9999.00 -9999.00 -9999.00 -9999.00 -9999.00 -9999.00 -9999.00 -9999.00 -9999.00 -9999.00 -9999.00 -9999.00 -9999.00 -9999.00 -9999.00 -9999.00 -2125.02 799.90 1556.61 1641.63 1645.54 1644.76 1643.50 1641.83 1639.84 1637.67 1635.48 1633.25 1630.81 1628.24 1625.59 1622.85 1619.96 1616.85 1613.54 1610.17 1606.89 1603.78 1600.95 1598.60 1596.86 1595.54 1594.39 1593.36 1592.43 1591.60 1590.87 1590.23 1589.62 1589.01 1588.45 1587.95 1587.43 1586.72 1585.67 1584.25 1582.63 1581.10 1580.12 1580.17 1581.31 1582.91 1584.30 1585.17 1585.46 1585.20 1584.39 1582.96 1580.75 1577.70 1574.05 1570.51 1568.46 1569.14 1572.33 1576.60 1580.67 1584.11 1587.07 1589.72 1592.13 1594.34 1596.35 1598.13 1599.63 1600.87 1601.85 1602.57 1603.05 1603.33 1603.44 1603.38 1603.07 1602.39 1601.25 1599.67 1597.71 1595.50 1593.21 1591.00 1589.05 1587.73 1587.41 1588.03 1589.14 1590.42 1591.86 1593.58 1595.55 1596.13 1546.87 922.37 -1883.84 -9999.00 -9999.00 -9999.00 -9999.00 -9999.00 -9999.00 -9999.00 -9999.00 -9999.00 -9999.00 -9999.00 -9999.00 -9999.00 -9999.00 -9999.00 -9999.00 -9999.00 -9999.00 -9999.00 -9999.00 -9999.00 -9999.00 -9999.00 -9999.00 -9999.00 -9999.00 -9999.00 -9999.00 -9999.00 -9999.00 -9999.00 -9999.00 -9999.00 -9999.00 -9999.00
-9999.00 -9999.00 -9999.00 -9999.00 -9999.00 -9999.00 -9999.00 -9999.00 -9999.00 -9999.00 -9999.00 -9999.00 -9999.00 -9999.00 -9999.00 -9999.00 -9999.00 -9999.00 -9999.00 -9999.00 -9999.00 -9999.00 -9999.00 -9999.00 -9999.00 -9999.00 -9999.00 -9999.00 -9999.00 -9999.00 -9999.00 -9999.00 -9999.00 -9999.00 -9999.00 -9999.00 -9999.00 -9999.00 -1874.21 951.99 1590.50 1644.39 1645.65 1644.89 1643.77 1642.26 1640.38 1638.29 1636.14 1633.92 1631.48 1628.93 1626.33 1623.64 1620.81 1617.74 1614.41 1610.96 1607.52 1604.10 1600.75 1597.85 1595.91 1594.99 1594.59 1594.31 1594.02 1593.70 1593.34 1592.94 1592.50 1592.02 1591.52 1590.97 1590.29 1589.37 1588.12 1586.51 1584.60 1582.51 1580.51 1579.16 1579.00 1579.90 1581.15 1582.12 1582.57 1582.45 1581.75 1580.34 1578.03 1574.94 1571.64 1569.22 1568.98 1571.34 1575.30 1579.54 1583.30 1586.50 1589.36 1592.01 1594.48 1596.76 1598.84 1600.67 1602.23 1603.51 1604.48 1605.14 1605.54 1605.73 1605.75 1605.59 1605.16 1604.34 1603.02 1601.21 1599.02 1596.59 1594.10 1591.78 1589.99 1589.19 1589.51 1590.58 1591.92 1593.30 1594.73 1596.31 1598.08 1598.45 1548.96 924.15 -1882.63 -9999.00 -9999.00 -9999.00 -9999.00 -9999.00 -9999.00 -9999.00 -9999.00 -9999.00 -9999.00 -9999.00 -9999.00 -9999.00 -9999.00 -9999.00 -9999.00 -9999.00 -9999.00 -9999.00 -9999.00 -9999.00 -9999.00 -9999.00 -9999.00 -9999.00 -9999.00 -9999.00 -9999.00 -9999.00 -9999.00 -9999.00 -9999.00 -9999.00 -9999.00 -9999.00
-9999.00 -9999.00 -9999.00 -9999.00 -9999.00 -9999.00 -9999.00 -9999.00 -9999.00 -9999.00 -9999.00 -9999.00 -9999.00 -9999.00 -9999.00 -9999.00 -9999.00 -9999.00 -9999.00 -9999.00 -9999.00 -9999.00 -9999.00 -9999.00 -9999.00 -9999.00 -9999.00 -9999.00 -9999.00 -9999.00 -9999.00 -9999.00 -9999.00 -9999.00 -9999.00 -9999.00 -9999.00 -9999.00 -1853.23 964.58 1593.32 1644.64 1645.70 1644.99 1644.01 1642.64 1640.86 1638.83 1636.71 1634.48 1632.01 1629.45 1626.85 1624.15 1621.28 1618.18 1614.84 1611.36 1607.87 1604.37 1600.98 1598.26 1596.86 1596.74 1597.08 1597.34 1597.40 1597.29 1597.03 1596.66 1596.20 1595.65 1595.01 1594.24 1593.28 1592.06 1590.57 1588.79 1586.75 1584.48 1582.05 1579.75 1578.17 1577.74 1578.23 1578.98 1579.44 1579.39 1578.73 1577.27 1574.95 1572.15 1569.83 1569.14 1570.75 1574.13 1578.17 1582.09 1585.58 1588.67 1591.54 1594.25 1596.81 1599.18 1601.31 1603.19 1604.79 1606.07 1606.99 1607.57 1607.88 1607.95 1607.85 1607.54 1606.97 1606.02 1604.58 1602.62 1600.25 1597.63 1594.99 1592.65 1591.18 1591.03 1591.95 1593.38 1594.93 1596.43 1597.87 1599.33 1600.89 1601.01 1551.26 926.12 -1881.26 -9999.00 -9999.00 -9999.00 -9999.00 -9999.00 -9999.00 -9999.00 -9999.00 -9999.00 -9999.00 -9999.00 -9999.00 -9999.00 -9999.00 -9999.00 -9999.00 -9999.00 -9999.00 -9999.00 -9999.00 -9999.00 -9999.00 -9999.00 -9999.00 -9999.00 -9999.00 -9999.00 -9999.00 -9999.00 -9999.00 -9999.00 -9999.00 -9999.00 -9999.00 -9999.00
-9999.00 -9999.00 -9999.00 -9999.00 -9999.00 -9999.00 -9999.00 -9999.00 -9999.00 -9999.00 -9999.00 -9999.00 -9999.00 -9999.00 -9999.00 -9999.00 -9999.00 -9999.00 -9999.00 -9999.00 -9999.00 -9999.00 -9999.00 -9999.00 -9999.00 -9999.00 -9999.00 -9999.00 -9999.00 -9999.00 -9999.00 -9999.00 -9999.00 -9999.00 -9999.00 -9999.00 -9999.00 -9999.00 -1840.00 967.79 1593.67 1644.67 1645.71 1645.04 1644.13 1642.84 1641.13 1639.11 1637.00 1634.75 1632.25 1629.67 1627.04 1624.29 1621.36 1618.20 1614.83 1611.34 1607.84 1604.40 1601.39 1599.51 1599.15 1599.79 1600.55 1601.02 1601.20 1601.15 1600.90 1600.52 1599.99 1599.32 1598.49 1597.45 1596.19 1594.68 1592.93 1590.97 1588.81 1586.48 1583.96 1581.35 1578.93 1577.15 1576.32 1576.19 1576.24 1576.03 1575.32 1573.94 1571.95 1570.01 1569.17 1570.25 1573.13 1576.85 1580.64 1584.21 1587.52 1590.60 1593.54 1596.36 1599.03 1601.50 1603.70 1605.63 1607.27 1608.55 1609.45 1609.98 1610.19 1610.13 1609.85 1609.34 1608.55 1607.44 1605.92 1603.89 1601.41 1598.66 1595.92 1593.75 1592.84 1593.35 1594.73 1596.42 1598.11 1599.69 1601.11 1602.45 1603.80 1603.67 1553.60 927.87 -1880.38 -9999.00 -9999.00 -9999.00 -9999.00 -9999.00 -9999.00 -9999.00 -9999.00 -9999.00 -9999.00 -9999.00 -9999.00 -9999.00 -9999.00 -9999.00 -9999.00 -9999.00 -9999.00 -9999.00 -9999.00 -9999.00 -9999.00 -9999.00 -9999.00 -9999.00 -9999.00 -9999.00 -9999.00 -9999.00 -9999.00 -9999.00 -9999.00 -9999.00 -9999.00 -9999.00
-9999.00 -9999.00 -9999.00 -9999.00 -9999.00 -9999.00 -9999.00 -9999.00 -9999.00 -9999.00 -9999.00 -9999.00 -9999.00 -9999.00 -9999.00 -9999.00 -9999.00 -9999.00 -9999.00 -9999.00 -9999.00 -9999.00 -9999.00 -9999.00 -9999.00 -9999.00 -9999.00 -9999.00 -9999.00 -9999.00 -9999.00 -9999.00 -9999.00 -9999.00 -9999.00 -9999.00 -9999.00 -9999.00 -1685.03 1002.00 1596.46 1644.71 1645.64 1644.96 1644.04 1642.75 1641.03 1639.01 1636.89 1634.62 1632.09 1629.48 1626.83 1624.03 1621.03 1617.81 1614.41 1610.95 1607.55 1604.46 1602.31 1601.61 1602.18 1603.23 1604.15 1604.71 1604.95 1604.90 1604.65 1604.22 1603.63 1602.82 1601.78 1600.48 1598.94 1597.16 1595.17 1593.02 1590.73 1588.35 1585.86 1583.25 1580.64 1578.19 1576.21 1574.87 1573.99 1573.24 1572.39 1571.31 1570.13 1569.32 1569.70 1571.86 1575.30 1579.02 1582.56 1585.92 1589.15 1592.28 1595.34 1598.30 1601.09 1603.65 1605.94 1607.94 1609.65 1610.96 1611.84 1612.32 1612.46 1612.29 1611.85 1611.12 1610.08 1608.76 1607.13 1605.07 1602.56 1599.75 1597.06 1595.27 1595.05 1596.13 1597.80 1599.60 1601.36 1602.94 1604.32 1605.56 1606.75 1606.19 1553.35 917.63 -1899.35 -9999.00 -9999.00 -9999.00 -9999.00 -9999.00 -9999.00 -9999.00 -9999.00 -9999.00 -9999.00 -9999.00 -9999.00 -9999.00 -9999.00 -9999.00 -9999.00 -9999.00 -9999.00 -9999.00 -9999.00 -9999.00 -9999.00 -9999.00 -9999.00 -9999.00 -9999.00 -9999.00 -9999.00 -9999.00 -9999.00 -9999.00 -9999.00 -9999.00 -9999.00 -9999.00
-9999.00 -9999.00 -9999.00 -9999.00 -9999.00 -9999.00 -9999.00 -9999.00 -9999.00 -9999.00 -9999.00 -9999.00 -9999.00 -9999.00 -9999.00 -9999.00 -9999.00 -9999.00 -9999.00 -9999.00 -9999.00 -9999.00 -9999.00 -9999.00 -9999.00 -9999.00 -9999.00 -9999.00 -9999.00 -9999.00 -9999.00 -9999.00 -9999.00 -9999.00 -9999.00 -9999.00 -9999.00 -9999.00 -969.12 1156.97 1609.01 1645.00 1645.48 1644.72 1643.70 1642.29 1640.50 1638.44 1636.28 1633.99 1631.44 1628.83 1626.15 1623.31 1620.24 1616.97 1613.61 1610.32 1607.32 1605.05 1604.08 1604.44 1605.54 1606.74 1607.72 1608.36 1608.64 1608.61 1608.31 1607.82 1607.11 1606.13 1604.83 1603.27 1601.46 1599.45 1597.26 1594.92 1592.51 1590.05 1587.56 1584.99 1582.42 1579.91 1577.52 1575.37 1573.54 1572.07 1571.04 1570.45 1570.18 1570.15 1570.88 1573.20 1576.73 1580.43 1583.89 1587.21 1590.47 1593.71 1596.92 1600.02 1602.93 1605.58 1607.96 1610.06 1611.81 1613.09 1613.90 1614.32 1614.41 1614.20 1613.66 1612.76 1611.55 1610.06 1608.30 1606.21 1603.71 1600.97 1598.54 1597.34 1597.76 1599.20 1600.98 1602.82 1604.58 1606.13 1607.47 1608.65 1609.66 1606.25 1522.11 768.16 -2147.98 -9999.00 -9999.00 -9999.00 -9999.00 -9999.00 -9999.00 -9999.00 -9999.00 -9999.00 -9999.00 -9999.00 -9999.00 -9999.00 -9999.00 -9999.00 -9999.00 -9999.00 -9999.00 -9999.00 -9999.00 -9999.00 -9999.00 -9999.00 -9999.00 -9999.00 -9999.00 -9999.00 -9999.00 -9999.00 -9999.00 -9999.00 -9999.00 -9999.00 -9999.00 -9999.00
-9999.00 -9999.00 -9999.00 -9999.00 -9999.00 -9999.00 -9999.00 -9999.00 -9999.00 -9999.00 -9999.00 -9999.00 -9999.00 -9999.00 -9999.00 -9999.00 -9999.00 -9999.00 -9999.00 -9999.00 -9999.00 -9999.00 -9999.00 -9999.00 -9999.00 -9999.00 -9999.00 -9999.00 -9999.00 -9999.00 -9999.00 -9999.00 -9999.00 -9999.00 -9999.00 -9999.00 -9999.00 -2402.01 307.39 1420.36 1629.94 1645.48 1645.22 1644.29 1643.05 1641.46 1639.53 1637.39 1635.17 1632.85 1630.32 1627.71 1625.00 1622.10 1618.98 1615.73 1612.56 1609.73 1607.59 1606.53 1606.70 1607.73 1609.04 1610.31 1611.33 1612.03 1612.38 1612.36 1612.00 1611.37 1610.49 1609.26 1607.66 1605.79 1603.73 1601.50 1599.13 1596.66 1594.10 1591.55 1589.01 1586.43 1583.85 1581.36 1578.94 1576.48 1574.07 1572.17 1571.25 1571.29 1571.69 1571.85 1572.24 1574.09 1577.46 1581.21 1584.76 1588.17 1591.53 1594.91 1598.26 1601.48 1604.48 1607.23 1609.73 1611.90 1613.60 1614.80 1615.56 1615.94 1616.02 1615.77 1615.15 1614.16 1612.85 1611.28 1609.43 1607.28 1604.84 1602.31 1600.36 1599.84 1600.74 1602.34 1604.14 1605.97 1607.71 1609.26 1610.59 1611.72 1612.27 1596.66 1373.04 90.33 -3267.79 -9999.00 -9999.00 -9999.00 -9999.00 -9999.00 -9999.00 -9999.00 -9999.00 -9999.00 -9999.00 -9999.00 -9999.00 -9999.00 -9999.00 -9999.00 -9999.00 -9999.00 -9999.00 -9999.00 -9999.00 -9999.00 -9999.00 -9999.00 -9999.00 -9999.00 -9999.00 -9999.00 -9999.00 -9999.00 -9999.00 -9999.00 -9999.00 -9999.00 -9999.00 -9999.00
-9999.00 -9999.00 -9999.00 -9999.00 -9999.00 -9999.00 -9999.00 -9999.00 -9999.00 -9999.00 -9999.00 -9999.00 -9999.00 -9999.00 -9999.00 -9999.00 -9999.00 -9999.00 -9999.00 -9999.00 -9999.00 -9999.00 -9999.00 -9999.00 -9999.00 -9999.00 -9999.00 -9999.00 -9999.00 -9999.00 -9999.00 -9999.00 -9999.00 -9999.00 -9999.00 -9999.00 -3413.39 -153.24 1240.26 1593.13 1642.97 1645.64 1644.79 1643.59 1642.08 1640.26 1638.19 1635.94 1633.65 1631.30 1628.78 1626.14 1623.39 1620.45 1617.36 1614.34 1611.69 1609.75 1608.82 1608.95 1609.90 1611.23 1612.62 1613.90 1614.93 1615.62 1615.95 1615.91 1615.46 1614.68 1613.60 1612.12 1610.22 1608.03 1605.68 1603.24 1600.73 1598.14 1595.47 1592.81 1590.18 1587.54 1584.87 1582.26 1579.70 1577.02 1574.42 1572.67 1572.33 1573.01 1573.73 1573.81 1573.68 1574.86 1577.90 1581.68 1585.37 1588.89 1592.36 1595.87 1599.32 1602.61 1605.69 1608.55 1611.18 1613.39 1615.04 1616.18 1616.91 1617.31 1617.38 1617.09 1616.40 1615.32 1613.95 1612.35 1610.48 1608.32 1605.97 1603.75 1602.39 1602.48 1603.71 1605.41 1607.25 1609.10 1610.86 1612.39 1613.67 1614.73 1614.56 1578.94 1125.46 -1028.88 -9999.00 -9999.00 -9999.00 -9999.00 -9999.00 -9999.00 -9999.00 -9999.00 -9999.00 -9999.00 -9999.00 -9999.00 -9999.00 -9999.00 -9999.00 -9999.00 -9999.00 -9999.00 -9999.00 -9999.00 -9999.00 -9999.00 -9999.00 -9999.00 -9999.00 -9999.00 -9999.00 -9999.00 -9999.00 -9999.00 -9999.00 -9999.00 -9999.00 -9999.00 -9999.00 -9999.00
-9999.00 -9999.00 -9999.00 -9999.00 -9999.00 -9999.00 -9999.00 -9999.00 -9999.00 -9999.00 -9999.00 -9999.00 -9999.00 -9999.00 -9999.00 -9999.00 -9999.00 -9999.00 -9999.00 -9999.00 -9999.00 -9999.00 -9999.00 -9999.00 -9999.00 -9999.00 -9999.00 -9999.00 -9999.00 -9999.00 -9999.00 -9999.00 -9999.00 -9999.00 -9999.00 -9999.00 -2124.34 782.46 1544.89 1639.58 1646.00 1645.37 1644.13 1642.58 1640.78 1638.76 1636.53 1634.19 1631.85 1629.47 1626.89 1624.21 1621.43 1618.57 1615.79 1613.42 1611.76 1611.00 1611.17 1612.06 1613.34 1614.74 1616.09 1617.31 1618.24 1618.81 1619.02 1618.87 1618.32 1617.41 1616.14 1614.46 1612.32 1609.87 1607.27 1604.64 1602.01 1599.32 1596.56 1593.79 1591.06 1588.34 1585.55 1582.73 1579.90 1576.99 1574.50 1573.39 1573.85 1574.96 1575.74 1575.67 1575.14 1575.73 1578.40 1582.14 1585.89 1589.46 1593.01 1596.60 1600.09 1603.41 1606.54 1609.50 1612.23 1614.48 1616.12 1617.25 1618.00 1618.42 1618.51 1618.21 1617.47 1616.34 1614.93 1613.33 1611.51 1609.40 1607.19 1605.32 1604.51 1605.09 1606.57 1608.41 1610.35 1612.26 1613.99 1615.44 1616.62 1617.59 1616.97 1569.14 976.12 -1707.19 -9999.00 -9999.00 -9999.00 -9999.00 -9999.00 -9999.00 -9999.00 -9999.00 -9999.00 -9999.00 -9999.00 -9999.00 -9999.00 -9999.00 -9999.00 -9999.00 -9999.00 -9999.00 -9999.00 -9999.00 -9999.00 -9999.00 -9999.00 -9999.00 -9999.00 -9999.00 -9999.00 -9999.00 -9999.00 -9999.00 -9999.00 -9999.00 -9999.00 -9999.00 -9999.00 -9999.00
-9999.00 -9999.00 -9999.00 -9999.00 -9999.00 -9999.00 -9999.00 -9999.00 -9999.00 -9999.00 -9999.00 -9999.00 -9999.00 -9999.00 -9999.00 -9999.00 -9999.00 -9999.00 -9999.00 -9999.00 -9999.00 -9999.00 -9999.00 -9999.00 -9999.00 -9999.00 -9999.00 -9999.00 -9999.00 -9999.00 -9999.00 -9999.00 -9999.00 -9999.00 -9999.00 -9999.00 -1708.70 989.29 1594.19 1645.21 1646.12 1644.89 1643.26 1641.35 1639.28 1637.07 1634.73 1632.34 1629.94 1627.49 1624.86 1622.17 1619.54 1617.12 1615.16 1613.87 1613.35 1613.53 1614.30 1615.46 1616.76 1618.06 1619.25 1620.29 1621.05 1621.46 1621.51 1621.21 1620.53 1619.48 1618.04 1616.15 1613.83 1611.23 1608.48 1605.71 1602.97 1600.21 1597.36 1594.48 1591.65 1588.83 1585.92 1582.90 1579.82 1576.80 1574.70 1574.44 1575.56 1576.80 1577.42 1577.20 1576.50 1576.75 1579.11 1582.70 1586.40 1589.96 1593.50 1597.08 1600.55 1603.86 1606.99 1610.01 1612.80 1615.10 1616.78 1617.96 1618.74 1619.21 1619.35 1619.10 1618.42 1617.31 1615.90 1614.32 1612.58 1610.61 1608.60 1607.08 1606.74 1607.69 1609.39 1611.37 1613.39 1615.27 1616.90 1618.24 1619.34 1620.23 1619.42 1568.77 944.43 -1857.38 -9999.00 -9999.00 -9999.00 -9999.00 -9999.00 -9999.00 -9999.00 -9999.00 -9999.00 -9999.00 -9999.00 -9999.00 -9999.00 -9999.00 -9999.00 -9999.00 -9999.00 -9999.00 -9999.00 -9999.00 -9999.00 -9999.00 -9999.00 -9999.00 -9999.00 -9999.00 -9999.00 -9999.00 -9999.00 -9999.00 -9999.00 -9999.00 -9999.00 -9999.00 -9999.00 -9999.00
-9999.00 -9999.00 -9999.00 -9999.00 -9999.00 -9999.00 -9999.00 -9999.00 -9999.00 -9999.00 -9999.00 -9999.00 -9999.00 -9999.00 -9999.00 -9999.00 -9999.00 -9999.00 -9999.00 -9999.00 -9999.00 -9999.00 -9999.00 -9999.00 -9999.00 -9999.00 -9999.00 -9999.00 -9999.00 -9999.00 -9999.00 -9999.00 -9999.00 -9999.00 -9999.00 -9999.00 -1005.63 1154.70 1609.92 1645.88 1645.92 1644.37 1642.38 1640.15 1637.81 1635.43 1633.02 1630.59 1628.16 1625.71 1623.20 1620.78 1618.70 1617.15 1616.26 1615.99 1616.20 1616.78 1617.69 1618.80 1619.96 1621.05 1622.04 1622.87 1623.45 1623.69 1623.59 1623.14 1622.33 1621.13 1619.49 1617.39 1614.91 1612.18 1609.32 1606.45 1603.65 1600.83 1597.91 1594.93 1591.99 1589.06 1586.04 1582.87 1579.62 1576.67 1575.16 1575.72 1577.24 1578.38 1578.75 1578.39 1577.68 1577.86 1580.00 1583.35 1586.90 1590.37 1593.82 1597.30 1600.69 1603.93 1607.04 1610.04 1612.86 1615.21 1616.99 1618.26 1619.12 1619.69 1619.94 1619.81 1619.24 1618.25 1616.93 1615.41 1613.77 1612.01 1610.29 1609.15 1609.19 1610.37 1612.20 1614.23 1616.21 1617.98 1619.50 1620.77 1621.81 1622.64 1621.75 1570.71 943.32 -1868.99 -9999.00 -9999.00 -9999.00 -9999.00 -9999.00 -9999.00 -9999.00 -9999.00 -9999.00 -9999.00 -9999.00 -9999.00 -9999.00 -9999.00 -9999.00 -9999.00 -9999.00 -9999.00 -9999.00 -9999.00 -9999.00 -9999.00 -9999.00 -9999.00 -9999.00 -9999.00 -9999.00 -9999.00 -9999.00 -9999.00 -9999.00 -9999.00 -9999.00 -9999.00 -9999.00 -9999.00
-9999.00 -9999.00 -9999.00 -9999.00 -9999.00 -9999.00 -9999.00 -9999.00 -9999.00 -9999.00 -9999.00 -9999.00 -9999.00 -9999.00 -9999.00 -9999.00 -9999.00 -9999.00 -9999.00 -9999.00 -9999.00 -9999.00 -9999.00 -9999.00 -9999.00 -9999.00 -9999.00 -9999.00 -9999.00 -9999.00 -9999.00 -9999.00 -9999.00 -9999.00 -9999.00 -3248.18 119.57 1406.14 1630.72 1646.53 1645.78 1644.01 1641.76 1639.28 1636.72 1634.21 1631.78 1629.40 1627.11 1624.95 1622.91 1621.17 1619.90 1619.19 1618.99 1619.18 1619.59 1620.19 1620.98 1621.89 1622.82 1623.71 1624.52 1625.18 1625.59 1625.67 1625.41 1624.79 1623.84 1622.49 1620.68 1618.38 1615.70 1612.82 1609.86 1606.93 1604.08 1601.21 1598.23 1595.17 1592.13 1589.11 1585.98 1582.68 1579.32 1576.61 1575.84 1577.07 1578.74 1579.71 1579.85 1579.35 1578.70 1578.99 1580.96 1584.00 1587.31 1590.61 1593.91 1597.25 1600.51 1603.65 1606.66 1609.59 1612.38 1614.81 1616.74 1618.16 1619.17 1619.91 1620.32 1620.35 1619.97 1619.17 1618.04 1616.67 1615.17 1613.66 1612.31 1611.55 1611.84 1613.11 1614.91 1616.86 1618.73 1620.40 1621.85 1623.08 1624.10 1624.91 1623.78 1570.12 932.78 -1888.48 -9999.00 -9999.00 -9999.00 -9999.00 -9999.00 -9999.00 -9999.00 -9999.00 -9999.00 -9999.00 -9999.00 -9999.00 -9999.00 -9999.00 -9999.00 -9999.00 -9999.00 -9999.00 -9999.00 -9999.00 -9999.00 -9999.00 -9999.00 -9999.00 -9999.00 -9999.00 -9999.00 -9999.00 -9999.00 -9999.00 -9999.00 -9999.00 -9999.00 -9999.00 -9999.00 -9999.00
-9999.00 -9999.00 -9999.00 -9999.00 -9999.00 -9999.00 -9999.00 -9999.00 -9999.00 -9999.00 -9999.00 -9999.00 -9999.00 -9999.00 -9999.00 -9999.00 -9999.00 -9999.00 -9999.00 -9999.00 -9999.00 -9999.00 -9999.00 -9999.00 -9999.00 -9999.00 -9999.00 -9999.00 -9999.00 -9999.00 -9999.00 -9999.00 -9999.00 -9999.00 -9999.00 -2123.57 801.84 1558.59 1643.43 1647.05 1645.84 1643.99 1641.66 1639.09 1636.46 1633.96 1631.66 1629.53 1627.65 1626.02 1624.60 1623.48 1622.76 1622.42 1622.39 1622.59 1622.94 1623.41 1624.00 1624.68 1625.39 1626.11 1626.76 1627.27 1627.54 1627.49 1627.06 1626.24 1625.07 1623.55 1621.60 1619.14 1616.28 1613.24 1610.20 1607.20 1604.30 1601.37 1598.33 1595.21 1592.10 1588.99 1585.78 1582.38 1579.00 1576.69 1576.70 1578.41 1580.10 1580.92 1580.88 1580.23 1579.61 1580.03 1581.83 1584.53 1587.54 1590.60 1593.71 1596.88 1600.00 1603.00 1605.87 1608.67 1611.39 1613.89 1616.00 1617.66 1618.90 1619.85 1620.48 1620.72 1620.57 1620.05 1619.19 1618.09 1616.86 1615.65 1614.66 1614.23 1614.66 1615.87 1617.52 1619.31 1621.03 1622.62 1624.04 1625.28 1626.31 1627.05 1623.23 1538.41 782.84 -2137.56 -9999.00 -9999.00 -9999.00 -9999.00 -9999.00 -9999.00 -9999.00 -9999.00 -9999.00 -9999.00 -9999.00 -9999.00 -9999.00 -9999.00 -9999.00 -9999.00 -9999.00 -9999.00 -9999.00 -9999.00 -9999.00 -9999.00 -9999.00 -9999.00 -9999.00 -9999.00 -9999.00 -9999.00 -9999.00 -9999.00 -9999.00 -9999.00 -9999.00 -9999.00 -9999.00 -9999.00
-9999.00 -9999.00 -9999.00 -9999.00 -9999.00 -9999.00 -9999.00 -9999.00 -9999.00 -9999.00 -9999.00 -9999.00 -9999.00 -9999.00 -9999.00 -9999.00 -9999.00 -9999.00 -9999.00 -9999.00 -9999.00 -9999.00 -9999.00 -9999.00 -9999.00 -9999.00 -9999.00 -9999.00 -9999.00 -9999.00 -9999.00 -9999.00 -9999.00 -9999.00 -9999.00 -1872.39 954.39 1592.91 1646.55 1647.45 1646.18 1644.42 1642.20 1639.75 1637.28 1634.98 1632.95 1631.19 1629.74 1628.53 1627.47 1626.64 1626.10 1625.80 1625.72 1625.80 1626.00 1626.31 1626.73 1627.22 1627.77 1628.33 1628.82 1629.17 1629.30 1629.11 1628.52 1627.48 1626.03 1624.28 1622.18 1619.62 1616.64 1613.49 1610.35 1607.28 1604.30 1601.31 1598.21 1595.04 1591.87 1588.71 1585.44 1582.01 1578.76 1576.98 1577.70 1579.74 1581.44 1582.20 1582.01 1581.16 1580.47 1580.85 1582.45 1584.80 1587.49 1590.28 1593.14 1596.13 1599.11 1601.97 1604.69 1607.32 1609.92 1612.45 1614.75 1616.70 1618.27 1619.53 1620.44 1620.95 1621.08 1620.86 1620.34 1619.60 1618.74 1617.88 1617.23 1617.05 1617.53 1618.60 1620.05 1621.63 1623.22 1624.75 1626.16 1627.41 1628.47 1628.86 1612.94 1388.58 103.75 -3259.00 -9999.00 -9999.00 -9999.00 -9999.00 -9999.00 -9999.00 -9999.00 -9999.00 -9999.00 -9999.00 -9999.00 -9999.00 -9999.00 -9999.00 -9999.00 -9999.00 -9999.00 -9999.00 -9999.00 -9999.00 -9999.00 -9999.00 -9999.00 -9999.00 -9999.00 -9999.00 -9999.00 -9999.00 -9999.00 -9999.00 -9999.00 -9999.00 -9999.00 -9999.00 -9999.00 -9999.00
-9999.00 -9999.00 -9999.00 -9999.00 -9999.00 -9999.00 -9999.00 -9999.00 -9999.00 -9999.00 -9999.00 -9999.00 -9999.00 -9999.00 -9999.00 -9999.00 -9999.00 -9999.00 -9999.00 -9999.00 -9999.00 -9999.00 -9999.00 -9999.00 -9999.00 -9999.00 -9999.00 -9999.00 -9999.00 -9999.00 -9999.00 -9999.00 -9999.00 -9999.00 -9999.00 -1851.44 967.34 1596.17 1647.25 1647.96 1646.80 1645.24 1643.29 1641.13 1638.95 1636.92 1635.15 1633.68 1632.48 1631.46 1630.53 1629.79 1629.27 1628.94 1628.77 1628.73 1628.79 1628.94 1629.20 1629.54 1629.94 1630.34 1630.66 1630.83 1630.77 1630.40 1629.60 1628.33 1626.63 1624.67 1622.43 1619.78 1616.73 1613.50 1610.30 1607.17 1604.12 1601.05 1597.89 1594.67 1591.45 1588.24 1584.94 1581.56 1578.63 1577.51 1578.82 1581.06 1582.81 1583.59 1583.30 1582.26 1581.36 1581.49 1582.77 1584.77 1587.12 1589.61 1592.20 1594.94 1597.77 1600.50 1603.09 1605.60 1608.10 1610.61 1613.05 1615.31 1617.28 1618.93 1620.21 1621.05 1621.48 1621.58 1621.42 1621.06 1620.59 1620.10 1619.77 1619.78 1620.27 1621.21 1622.47 1623.90 1625.38 1626.85 1628.23 1629.48 1630.54 1630.30 1594.32 1139.61 -1018.02 -9999.00 -9999.00 -9999.00 -9999.00 -9999.00 -9999.00 -9999.00 -9999.00 -9999.00 -9999.00 -9999.00 -9999.00 -9999.00 -9999.00 -9999.00 -9999.00 -9999.00 -9999.00 -9999.00 -9999.00 -9999.00 -9999.00 -9999.00 -9999.00 -9999.00 -9999.00 -9999.00 -9999.00 -9999.00 -9999.00 -9999.00 -9999.00 -9999.00 -9999.00 -9999.00 -9999.00 -9999.00
-9999.00 -9999.00 -9999.00 -9999.00 -9999.00 -9999.00 -9999.00 -9999.00 -9999.00 -9999.00 -9999.00 -9999.00 -9999.00 -9999.00 -9999.00 -9999.00 -9999.00 -9999.00 -9999.00 -9999.00 -9999.00 -9999.00 -9999.00 -9999.00 -9999.00 -9999.00 -9999.00 -9999.00 -9999.00 -9999.00 -9999.00 -9999.00 -9999.00 -9999.00 -9999.00 -1850.41 968.28 1596.85 1647.88 1648.65 1647.63 1646.32 1644.70 1642.90 1641.07 1639.31 1637.73 1636.40 1635.30 1634.34 1633.45 1632.72 1632.17 1631.77 1631.51 1631.37 1631.30 1631.31 1631.42 1631.60 1631.84 1632.06 1632.16 1632.09 1631.77 1631.11 1630.05 1628.58 1626.75 1624.67 1622.34 1619.62 1616.52 1613.25 1609.99 1606.82 1603.71 1600.58 1597.36 1594.08 1590.81 1587.55 1584.25 1581.03 1578.64 1578.29 1580.07 1582.42 1584.19 1584.96 1584.60 1583.44 1582.31 1582.10 1582.98 1584.58 1586.56 1588.71 1590.98 1593.41 1595.99 1598.59 1601.11 1603.59 1606.07 1608.59 1611.14 1613.65 1616.02 1618.12 1619.80 1621.00 1621.76 1622.21 1622.41 1622.41 1622.30 1622.15 1622.10 1622.29 1622.81 1623.67 1624.80 1626.11 1627.51 1628.90 1630.23 1631.43 1632.46 1631.60 1580.92 976.91 -1718.24 -9999.00 -9999.00 -9999.00 -9999.00 -9999.00 -9999.00 -9999.00 -9999.00 -9999.00 -9999.00 -9999.00 -9999.00 -9999.00 -9999.00 -9999.00 -9999.00 -9999.00 -9999.00 -9999.00 -9999.00 -9999.00 -9999.00 -9999.00 -9999.00 -9999.00 -9999.00 -9999.00 -9999.00 -9999.00 -9999.00 -9999.00 -9999.00 -9999.00 -9999.00 -9999.00 -9999.00 -9999.00
-9999.00 -9999.00 -9999.00 -9999.00 -9999.00 -9999.00 -9999.00 -9999.00 -9999.00 -9999.00 -9999.00 -9999.00 -9999.00 -9999.00 -9999.00 -9999.00 -9999.00 -9999.00 -9999.00 -9999.00 -9999.00 -9999.00 -9999.00 -9999.00 -9999.00 -9999.00 -9999.00 -9999.00 -9999.00 -9999.00 -9999.00 -9999.00 -9999.00 -9999.00 -9999.00 -1849.98 968.88 1597.54 1648.64 1649.49 1648.60 1647.50 1646.19 1644.75 1643.25 1641.77 1640.39 1639.16 1638.09 1637.13 1636.25 1635.49 1634.88 1634.39 1634.02 1633.76 1633.58 1633.47 1633.41 1633.40 1633.39 1633.32 1633.10 1632.70 1632.03 1631.05 1629.74 1628.15 1626.29 1624.22 1621.86 1619.11 1615.98 1612.67 1609.39 1606.18 1603.03 1599.82 1596.54 1593.22 1589.91 1586.62 1583.36 1580.45 1578.82 1579.33 1581.48 1583.85 1585.54 1586.20 1585.79 1584.60 1583.35 1582.88 1583.46 1584.72 1586.25 1587.93 1589.74 1591.73 1593.96 1596.35 1598.81 1601.31 1603.86 1606.46 1609.13 1611.86 1614.58 1617.12 1619.23 1620.81 1621.94 1622.73 1623.27 1623.63 1623.85 1624.01 1624.22 1624.58 1625.17 1626.00 1627.05 1628.25 1629.56 1630.88 1632.13 1633.26 1634.17 1630.48 1545.91 792.56 -2119.67 -9999.00 -9999.00 -9999.00 -9999.00 -9999.00 -9999.00 -9999.00 -9999.00 -9999.00 -9999.00 -9999.00 -9999.00 -9999.00 -9999.00 -9999.00 -9999.00 -9999.00 -9999.00 -9999.00 -9999.00 -9999.00 -9999.00 -9999.00 -9999.00 -9999.00 -9999.00 -9999.00 -9999.00 -9999.00 -9999.00 -9999.00 -9999.00 -9999.00 -9999.00 -9999.00 -9999.00 -9999.00
-9999.00 -9999.00 -9999.00 -9999.00 -9999.00 -9999.00 -9999.00 -9999.00 -9999.00 -9999.00 -9999.00 -9999.00 -9999.00 -9999.00 -9999.00 -9999.00 -9999.00 -9999.00 -9999.00 -9999.00 -9999.00 -9999.00 -9999.00 -9999.00 -9999.00 -9999.00 -9999.00 -9999.00 -9999.00 -9999.00 -9999.00 -9999.00 -9999.00 -9999.00 -9999.00 -1849.54 969.49 1598.24 1649.43 1650.39 1649.62 1648.67 1647.58 1646.39 1645.16 1643.94 1642.76 1641.64 1640.62 1639.69 1638.84 1638.08 1637.43 1636.86 1636.37 1635.97 1635.65 1635.37 1635.09 1634.79 1634.41 1633.92 1633.26 1632.44 1631.41 1630.15 1628.68 1627.06 1625.27 1623.25 1620.89 1618.13 1615.00 1611.68 1608.39 1605.19 1601.99 1598.72 1595.39 1592.04 1588.69 1585.40 1582.32 1579.99 1579.36 1580.69 1583.07 1585.33 1586.83 1587.34 1586.86 1585.69 1584.46 1583.95 1584.48 1585.58 1586.75 1587.89 1589.12 1590.54 1592.23 1594.20 1596.44 1598.90 1601.52 1604.24 1607.05 1609.96 1612.97 1615.92 1618.49 1620.49 1622.01 1623.15 1624.01 1624.69 1625.24 1625.71 1626.16 1626.70 1627.38 1628.21 1629.20 1630.32 1631.53 1632.78 1633.95 1635.00 1635.45 1619.57 1395.15 109.76 -3254.56 -9999.00 -9999.00 -9999.00 -9999.00 -9999.00 -9999.00 -9999.00 -9999.00 -9999.00 -9999.00 -9999.00 -9999.00 -9999.00 -9999.00 -9999.00 -9999.00 -9999.00 -9999.00 -9999.00 -9999.00 -9999.00 -9999.00 -9999.00 -9999.00 -9999.00 -9999.00 -9999.00 -9999.00 -9999.00 -9999.00 -9999.00 -9999.00 -9999.00 -9999.00 -9999.00 -9999.00 -9999.00
-9999.00 -9999.00 -9999.00 -9999.00 -9999.00 -9999.00 -9999.00 -9999.00 -9999.00 -9999.00 -9999.00 -9999.00 -9999.00 -9999.00 -9999.00 -9999.00 -9999.00 -9999.00 -9999.00 -9999.00 -9999.00 -9999.00 -9999.00 -9999.00 -9999.00 -9999.00 -9999.00 -9999.00 -9999.00 -9999.00 -9999.00 -9999.00 -9999.00 -9999.00 -9999.00 -1849.07 970.14 1598.96 1650.21 1651.25 1650.59 1649.78 1648.83 1647.82 1646.76 1645.70 1644.66 1643.64 1642.68 1641.82 1641.00 1640.26 1639.58 1638.95 1638.35 1637.80 1637.30 1636.79 1636.21 1635.52 1634.71 1633.73 1632.61 1631.36 1630.01 1628.55 1627.02 1625.43 1623.70 1621.69 1619.33 1616.57 1613.45 1610.18 1606.94 1603.76 1600.54 1597.24 1593.88 1590.49 1587.14 1583.97 1581.34 1579.99 1580.49 1582.42 1584.80 1586.82 1588.08 1588.39 1587.81 1586.67 1585.56 1585.20 1585.86 1587.02 1588.10 1589.01 1589.87 1590.79 1591.83 1593.12 1594.75 1596.82 1599.30 1602.07 1605.02 1608.08 1611.29 1614.56 1617.57 1620.03 1621.97 1623.46 1624.64 1625.63 1626.51 1627.28 1627.98 1628.69 1629.46 1630.32 1631.27 1632.31 1633.43 1634.59 1635.66 1636.60 1636.30 1600.37 1145.75 -1012.65 -9999.00 -9999.00 -9999.00 -9999.00 -9999.00 -9999.00 -9999.00 -9999.00 -9999.00 -9999.00 -9999.00 -9999.00 -9999.00 -9999.00 -9999.00 -9999.00 -9999.00 -9999.00 -9999.00 -9999.00 -9999.00 -9999.00 -9999.00 -9999.00 -9999.00 -9999.00 -9999.00 -9999.00 -9999.00 -9999.00 -9999.00 -9999.00 -9999.00 -9999.00 -9999.00 -9999.00 -9999.00 -9999.00
-9999.00 -9999.00 -9999.00 -9999.00 -9999.00 -9999.00 -9999.00 -9999.00 -9999.00 -9999.00 -9999.00 -9999.00 -9999.00 -9999.00 -9999.00 -9999.00 -9999.00 -9999.00 -9999.00 -9999.00 -9999.00 -9999.00 -9999.00 -9999.00 -9999.00 -9999.00 -9999.00 -9999.00 -9999.00 -9999.00 -9999.00 -9999.00 -9999.00 -9999.00 -9999.00 -1848.56 970.84 1599.71 1650.99 1652.07 1651.47 1650.76 1649.94 1649.05 1648.10 1647.12 1646.15 1645.20 1644.30 1643.46 1642.64 1641.88 1641.18 1640.47 1639.76 1639.05 1638.34 1637.54 1636.59 1635.48 1634.22 1632.81 1631.27 1629.67 1628.07 1626.48 1624.90 1623.28 1621.51 1619.45 1617.06 1614.32 1611.29 1608.14 1605.00 1601.88 1598.67 1595.37 1592.02 1588.65 1585.39 1582.61 1580.91 1580.82 1582.24 1584.40 1586.56 1588.26 1589.24 1589.33 1588.62 1587.50 1586.58 1586.52 1587.46 1588.83 1590.11 1591.17 1592.05 1592.78 1593.42 1594.05 1594.84 1596.05 1597.87 1600.31 1603.20 1606.35 1609.68 1613.14 1616.51 1619.42 1621.80 1623.68 1625.20 1626.53 1627.74 1628.79 1629.71 1630.58 1631.44 1632.34 1633.28 1634.26 1635.28 1636.30 1637.23 1638.03 1637.23 1589.10 994.82 -1693.18 -9999.00 -9999.00 -9999.00 -9999.00 -9999.00 -9999.00 -9999.00 -9999.00 -9999.00 -9999.00 -9999.00 -9999.00 -9999.00 -9999.00 -9999.00 -9999.00 -9999.00 -9999.00 -9999.00 -9999.00 -9999.00 -9999.00 -9999.00 -9999.00 -9999.00 -9999.00 -9999.00 -9999.00 -9999.00 -9999.00 -9999.00 -9999.00 -9999.00 -9999.00 -9999.00 -9999.00 -9999.00 -9999.00
-9999.00 -9999.00 -9999.00 -9999.00 -9999.00 -9999.00 -9999.00 -9999.00 -9999.00 -9999.00 -9999.00 -9999.00 -9999.00 -9999.00 -9999.00 -9999.00 -9999.00 -9999.00 -9999.00 -9999.00 -9999.00 -9999.00 -9999.00 -9999.00 -9999.00 -9999.00 -9999.00 -9999.00 -9999.00 -9999.00 -9999.00 -9999.00 -9999.00 -9999.00 -9999.00 -1848.05 971.54 1600.47 1651.77 1652.86 1652.28 1651.62 1650.88 1650.06 1649.19 1648.27 1647.33 1646.41 1645.53 1644.68 1643.80 1642.98 1642.20 1641.39 1640.54 1639.66 1638.68 1637.56 1636.24 1634.71 1633.06 1631.30 1629.46 1627.61 1625.82 1624.07 1622.32 1620.52 1618.57 1616.41 1614.01 1611.35 1608.51 1605.57 1602.60 1599.57 1596.42 1593.19 1589.92 1586.68 1583.78 1581.88 1581.50 1582.53 1584.38 1586.43 1588.26 1589.61 1590.27 1590.11 1589.26 1588.19 1587.57 1587.97 1589.31 1591.00 1592.59 1593.95 1595.05 1595.86 1596.41 1596.77 1597.00 1597.34 1598.13 1599.64 1601.97 1604.92 1608.26 1611.82 1615.41 1618.71 1621.51 1623.81 1625.71 1627.40 1628.93 1630.24 1631.36 1632.38 1633.34 1634.28 1635.21 1636.13 1637.03 1637.89 1638.66 1639.33 1638.34 1587.42 961.90 -1844.48 -9999.00 -9999.00 -9999.00 -9999.00 -9999.00 -9999.00 -9999.00 -9999.00 -9999.00 -9999.00 -9999.00 -9999.00 -9999.00 -9999.00 -9999.00 -9999.00 -9999.00 -9999.00 -9999.00 -9999.00 -9999.00 -9999.00 -9999.00 -9999.00 -9999.00 -9999.00 -9999.00 -9999.00 -9999.00 -9999.00 -9999.00 -9999.00 -9999.00 -9999.00 -9999.00 -9999.00 -9999.00 -9999.00
-9999.00 -9999.00 -9999.00 -9999.00 -9999.00 -9999.00 -9999.00 -9999.00 -9999.00 -9999.00 -9999.00 -9999.00 -9999.00 -9999.00 -9999.00 -9999.00 -9999.00 -9999.00 -9999.00 -9999.00 -9999.00 -9999.00 -9999.00 -9999.00 -9999.00 -9999.00 -9999.00 -9999.00 -9999.00 -9999.00 -9999.00 -9999.00 -9999.00 -9999.00 -9999.00 -1847.51 972.28 1601.26 1652.57 1653.65 1653.07 1652.41 1651.68 1650.88 1650.04 1649.16 1648.24 1647.32 1646.41 1645.50 1644.54 1643.61 1642.70 1641.75 1640.73 1639.60 1638.33 1636.87 1635.19 1633.32 1631.37 1629.37 1627.33 1625.30 1623.29 1621.28 1619.24 1617.13 1614.93 1612.64 1610.26 1607.77 1605.18 1602.50 1599.73 1596.86 1593.87 1590.80 1587.73 1584.87 1582.82 1582.25 1583.14 1584.80 1586.66 1588.43 1589.88 1590.84 1591.13 1590.71 1589.77 1588.89 1588.78 1589.75 1591.50 1593.47 1595.33 1596.97 1598.30 1599.26 1599.89 1600.22 1600.30 1600.22 1600.20 1600.60 1601.82 1604.08 1607.18 1610.74 1614.46 1618.02 1621.19 1623.87 1626.14 1628.19 1630.02 1631.57 1632.89 1634.05 1635.11 1636.08 1637.00 1637.85 1638.64 1639.37 1640.02 1640.58 1639.48 1588.18 959.70 -1856.88 -9999.00 -9999.00 -9999.00 -9999.00 -9999.00 -9999.00 -9999.00 -9999.00 -9999.00 -9999.00 -9999.00 -9999.00 -9999.00 -9999.00 -9999.00 -9999.00 -9999.00 -9999.00 -9999.00 -9999.00 -9999.00 -9999.00 -9999.00 -9999.00 -9999.00 -9999.00 -9999.00 -9999.00 -9999.00 -9999.00 -9999.00 -9999.00 -9999.00 -9999.00 -9999.00 -9999.00 -9999.00 -9999.00
-9999.00 -9999.00 -9999.00 -9999.00 -9999.00 -9999.00 -9999.00 -9999.00 -9999.00 -9999.00 -9999.00 -9999.00 -9999.00 -9999.00 -9999.00 -9999.00 -9999.00 -9999.00 -9999.00 -9999.00 -9999.00 -9999.00 -9999.00 -9999.00 -9999.00 -9999.00 -9999.00 -9999.00 -9999.00 -9999.00 -9999.00 -9999.00 -9999.00 -9999.00 -9999.00 -1846.89 973.12 1602.15 1653.45 1654.50 1653.87 1653.15 1652.37 1651.55 1650.69 1649.81 1648.89 1647.92 1646.94 1645.94 1644.88 1643.82 1642.75 1641.62 1640.37 1638.94 1637.34 1635.55 1633.57 1631.48 1629.36 1627.20 1624.99 1622.74 1620.44 1618.09 1615.71 1613.30 1610.86 1608.45 1606.12 1603.81 1601.44 1599.00 1596.48 1593.85 1591.12 1588.33 1585.69 1583.69 1583.01 1583.80 1585.44 1587.24 1588.93 1590.38 1591.44 1591.94 1591.83 1591.16 1590.29 1589.88 1590.47 1592.00 1594.02 1596.14 1598.17 1599.99 1601.50 1602.63 1603.37 1603.77 1603.87 1603.71 1603.35 1603.00 1603.10 1604.23 1606.64 1610.01 1613.76 1617.47 1620.89 1623.89 1626.50 1628.85 1630.95 1632.74 1634.26 1635.55 1636.67 1637.66 1638.56 1639.37 1640.09 1640.74 1641.30 1641.69 1639.91 1585.42 947.03 -1877.67 -9999.00 -9999.00 -9999.00 -9999.00 -9999.00 -9999.00 -9999.00 -9999.00 -9999.00 -9999.00 -9999.00 -9999.00 -9999.00 -9999.00 -9999.00 -9999.00 -9999.00 -9999.00 -9999.00 -9999.00 -9999.00 -9999.00 -9999.00 -9999.00 -9999.00 -9999.00 -9999.00 -9999.00 -9999.00 -9999.00 -9999.00 -9999.00 -9999.00 -9999.00 -9999.00 -9999.00 -9999.00 -9999.00
-9999.00 -9999.00 -9999.00 -9999.00 -9999.00 -9999.00 -9999.00 -9999.00 -9999.00 -9999.00 -9999.00 -9999.00 -9999.00 -9999.00 -9999.00 -9999.00 -9999.00 -9999.00 -9999.00 -9999.00 -9999.00 -9999.00 -9999.00 -9999.00 -9999.00 -9999.00 -9999.00 -9999.00 -9999.00 -9999.00 -9999.00 -9999.00 -9999.00 -9999.00 -9999.00 -1846.19 974.04 1603.11 1654.39 1655.41 1654.69 1653.85 1652.97 1652.08 1651.17 1650.24 1649.26 1648.21 1647.13 1646.01 1644.84 1643.65 1642.39 1641.02 1639.46 1637.71 1635.81 1633.78 1631.63 1629.43 1627.19 1624.88 1622.48 1619.96 1617.32 1614.63 1611.97 1609.31 1606.67 1604.16 1601.82 1599.59 1597.40 1595.21 1592.98 1590.69 1588.34 1586.10 1584.37 1583.74 1584.51 1586.19 1588.05 1589.74 1591.18 1592.30 1592.93 1592.96 1592.45 1591.67 1591.15 1591.47 1592.74 1594.63 1596.77 1598.96 1601.09 1603.01 1604.64 1605.90 1606.76 1607.25 1607.42 1607.30 1606.88 1606.23 1605.62 1605.63 1606.97 1609.77 1613.39 1617.16 1620.72 1623.95 1626.83 1629.42 1631.74 1633.76 1635.46 1636.86 1638.02 1639.02 1639.91 1640.72 1641.42 1642.00 1642.19 1639.33 1622.25 1518.93 762.53 -2143.21 -9999.00 -9999.00 -9999.00 -9999.00 -9999.00 -9999.00 -9999.00 -9999.00 -9999.00 -9999.00 -9999.00 -9999.00 -9999.00 -9999.00 -9999.00 -9999.00 -9999.00 -9999.00 -9999.00 -9999.00 -9999.00 -9999.00 -9999.00 -9999.00 -9999.00 -9999.00 -9999.00 -9999.00 -9999.00 -9999.00 -9999.00 -9999.00 -9999.00 -9999.00 -9999.00 -9999.00 -9999.00 -9999.00
-9999.00 -9999.00 -9999.00 -9999.00 -9999.00 -9999.00 -9999.00 -9999.00 -9999.00 -9999.00 -9999.00 -9999.00 -9999.00 -9999.00 -9999.00 -9999.00 -9999.00 -9999.00 -9999.00 -9999.00 -9999.00 -9999.00 -9999.00 -9999.00 -9999.00 -9999.00 -9999.00 -9999.00 -9999.00 -9999.00 -9999.00 -9999.00 -9999.00 -9999.00 -9999.00 -1845.41 975.09 1604.18 1655.39 1656.31 1655.47 1654.48 1653.44 1652.43 1651.45 1650.45 1649.37 1648.21 1646.99 1645.74 1644.44 1643.06 1641.56 1639.86 1637.96 1635.93 1633.83 1631.67 1629.47 1627.23 1624.89 1622.40 1619.76 1616.97 1614.06 1611.13 1608.23 1605.36 1602.54 1599.90 1597.51 1595.33 1593.30 1591.39 1589.55 1587.77 1586.13 1584.94 1584.60 1585.40 1587.09 1589.03 1590.78 1592.26 1593.43 1594.19 1594.37 1593.95 1593.17 1592.56 1592.68 1593.74 1595.47 1597.50 1599.67 1601.88 1604.05 1606.04 1607.75 1609.10 1610.06 1610.62 1610.84 1610.75 1610.37 1609.70 1608.83 1608.14 1608.39 1610.25 1613.46 1617.14 1620.76 1624.14 1627.21 1629.98 1632.47 1634.67 1636.51 1637.99 1639.20 1640.23 1641.14 1641.96 1642.65 1642.87 1637.63 1590.73 1403.97 952.13 -324.32 -3453.08 -9999.00 -9999.00 -9999.00 -9999.00 -9999.00 -9999.00 -9999.00 -9999.00 -9999.00 -9999.00 -9999.00 -9999.00 -9999.00 -9999.00 -9999.00 -9999.00 -9999.00 -9999.00 -9999.00 -9999.00 -9999.00 -9999.00 -9999.00 -9999.00 -9999.00 -9999.00 -9999.00 -9999.00 -9999.00 -9999.00 -9999.00 -9999.00 -9999.00 -9999.00 -9999.00 -9999.00 -9999.00 -9999.00
-9999.00 -9999.00 -9999.00 -9999.00 -9999.00 -9999.00 -9999.00 -9999.00 -9999.00 -9999.00 -9999.00 -9999.00 -9999.00 -9999.00 -9999.00 -9999.00 -9999.00 -9999.00 -9999.00 -9999.00 -9999.00 -9999.00 -9999.00 -9999.00 -9999.00 -9999.00 -9999.00 -9999.00 -9999.00 -9999.00 -9999.00 -9999.00 -9999.00 -9999.00 -9999.00 -1844.55 976.23 1605.32 1656.42 1657.16 1656.12 1654.95 1653.74 1652.60 1651.51 1650.41 1649.21 1647.90 1646.53 1645.13 1643.63 1641.98 1640.14 1638.07 1635.87 1633.64 1631.44 1629.26 1627.05 1624.78 1622.35 1619.69 1616.84 1613.85 1610.81 1607.73 1604.62 1601.52 1598.52 1595.78 1593.40 1591.40 1589.73 1588.31 1587.13 1586.22 1585.73 1585.88 1586.80 1588.39 1590.28 1592.07 1593.60 1594.83 1595.70 1596.04 1595.75 1594.95 1594.12 1593.97 1594.83 1596.45 1598.42 1600.52 1602.69 1604.90 1607.07 1609.08 1610.84 1612.27 1613.29 1613.89 1614.12 1614.03 1613.69 1613.07 1612.22 1611.28 1610.79 1611.63 1614.12 1617.54 1621.12 1624.55 1627.73 1630.62 1633.23 1635.54 1637.46 1639.01 1640.28 1641.36 1642.30 1643.13 1643.69 1640.68 1591.40 1273.57 298.98 -1256.14 -3287.62 -9999.00 -9999.00 -9999.00 -9999.00 -9999.00 -9999.00 -9999.00 -9999.00 -9999.00 -9999.00 -9999.00 -9999.00 -9999.00 -9999.00 -9999.00 -9999.00 -9999.00 -9999.00 -9999.00 -9999.00 -9999.00 -9999.00 -9999.00 -9999.00 -9999.00 -9999.00 -9999.00 -9999.00 -9999.00 -9999.00 -9999.00 -9999.00 -9999.00 -9999.00 -9999.00 -9999.00 -9999.00 -9999.00 -9999.00
-9999.00 -9999.00 -9999.00 -9999.00 -9999.00 -9999.00 -9999.00 -9999.00 -9999.00 -9999.00 -9999.00 -9999.00 -9999.00 -9999.00 -9999.00 -9999.00 -9999.00 -9999.00 -9999.00 -9999.00 -9999.00 -9999.00 -9999.00 -9999.00 -9999.00 -9999.00 -9999.00 -9999.00 -9999.00 -9999.00 -9999.00 -9999.00 -9999.00 -9999.00 -9999.00 -1843.41 977.29 1606.28 1657.24 1657.79 1656.52 1655.16 1653.82 1652.55 1651.34 1650.11 1648.76 1647.28 1645.74 1644.12 1642.32 1640.29 1638.05 1635.67 1633.27 1630.94 1628.68 1626.46 1624.22 1621.88 1619.37 1616.65 1613.76 1610.77 1607.70 1604.52 1601.25 1597.96 1594.82 1592.16 1590.20 1588.87 1587.99 1587.44 1587.19 1587.30 1587.86 1588.89 1590.34 1592.02 1593.70 1595.22 1596.49 1597.47 1597.98 1597.85 1597.09 1596.01 1595.36 1595.84 1597.34 1599.33 1601.45 1603.61 1605.80 1607.99 1610.12 1612.11 1613.89 1615.37 1616.45 1617.10 1617.35 1617.28 1616.95 1616.37 1615.57 1614.62 1613.82 1613.91 1615.58 1618.53 1621.91 1625.27 1628.45 1631.39 1634.08 1636.43 1638.38 1639.98 1641.32 1642.45 1643.41 1644.20 1644.04 1625.41 1405.87 299.80 -2224.47 -9999.00 -9999.00 -9999.00 -9999.00 -9999.00 -9999.00 -9999.00 -9999.00 -9999.00 -9999.00 -9999.00 -9999.00 -9999.00 -9999.00 -9999.00 -9999.00 -9999.00 -9999.00 -9999.00 -9999.00 -9999.00 -9999.00 -9999.00 -9999.00 -9999.00 -9999.00 -9999.00 -9999.00 -9999.00 -9999.00 -9999.00 -9999.00 -9999.00 -9999.00 -9999.00 -9999.00 -9999.00 -9999.00 -9999.00 -9999.00 -9999.00
-9999.00 -9999.00 -9999.00 -9999.00 -9999.00 -9999.00 -9999.00 -9999.00 -9999.00 -9999.00 -9999.00 -9999.00 -9999.00 -9999.00 -9999.00 -9999.00 -9999.00 -9999.00 -9999.00 -9999.00 -9999.00 -9999.00 -9999.00 -9999.00 -9999.00 -9999.00 -9999.00 -9999.00 -9999.00 -9999.00 -9999.00 -9999.00 -9999.00 -9999.00 -9999.00 -1830.28 980.74 1607.08 1657.67 1658.03 1656.58 1655.07 1653.62 1652.26 1650.91 1649.50 1647.97 1646.29 1644.51 1642.60 1640.42 1638.00 1635.44 1632.87 1630.38 1627.96 1625.57 1623.21 1620.84 1618.42 1615.91 1613.31 1610.63 1607.81 1604.80 1601.59 1598.24 1594.88 1591.92 1589.94 1589.09 1588.95 1589.14 1589.48 1589.97 1590.70 1591.72 1592.96 1594.35 1595.81 1597.20 1598.43 1599.44 1600.10 1600.20 1599.60 1598.40 1597.19 1596.91 1598.01 1599.99 1602.25 1604.52 1606.74 1608.93 1611.07 1613.14 1615.08 1616.85 1618.34 1619.46 1620.19 1620.52 1620.51 1620.22 1619.67 1618.91 1618.01 1617.18 1616.93 1617.94 1620.24 1623.22 1626.36 1629.44 1632.36 1635.04 1637.38 1639.32 1640.96 1642.36 1643.54 1644.53 1645.04 1639.05 1559.26 970.63 -1251.44 -9999.00 -9999.00 -9999.00 -9999.00 -9999.00 -9999.00 -9999.00 -9999.00 -9999.00 -9999.00 -9999.00 -9999.00 -9999.00 -9999.00 -9999.00 -9999.00 -9999.00 -9999.00 -9999.00 -9999.00 -9999.00 -9999.00 -9999.00 -9999.00 -9999.00 -9999.00 -9999.00 -9999.00 -9999.00 -9999.00 -9999.00 -9999.00 -9999.00 -9999.00 -9999.00 -9999.00 -9999.00 -9999.00 -9999.00 -9999.00 -9999.00 -9999.00
-9999.00 -9999.00 -9999.00 -9999.00 -9999.00 -9999.00 -9999.00 -9999.00 -9999.00 -9999.00 -9999.00 -9999.00 -9999.00 -9999.00 -9999.00 -9999.00 -9999.00 -9999.00 -9999.00 -9999.00 -9999.00 -9999.00 -9999.00 -9999.00 -9999.00 -9999.00 -9999.00 -9999.00 -9999.00 -9999.00 -9999.00 -9999.00 -9999.00 -9999.00 -9999.00 -1674.78 1015.36 1610.15 1657.85 1657.94 1656.34 1654.72 1653.18 1651.71 1650.18 1648.56 1646.82 1644.90 1642.80 1640.55 1638.04 1635.34 1632.61 1629.94 1627.31 1624.71 1622.11 1619.54 1617.04 1614.62 1612.26 1609.94 1607.56 1604.98 1602.11 1598.99 1595.69 1592.59 1590.43 1589.82 1590.43 1591.47 1592.45 1593.30 1594.13 1595.03 1596.06 1597.19 1598.38 1599.59 1600.71 1601.67 1602.37 1602.65 1602.31 1601.24 1599.72 1598.56 1598.76 1600.40 1602.73 1605.18 1607.56 1609.83 1612.00 1614.10 1616.11 1618.00 1619.72 1621.20 1622.37 1623.17 1623.60 1623.66 1623.43 1622.92 1622.20 1621.37 1620.62 1620.31 1620.93 1622.62 1625.08 1627.88 1630.76 1633.56 1636.15 1638.42 1640.35 1642.01 1643.45 1644.70 1645.71 1643.24 1593.48 1243.42 -116.09 -3245.59 -9999.00 -9999.00 -9999.00 -9999.00 -9999.00 -9999.00 -9999.00 -9999.00 -9999.00 -9999.00 -9999.00 -9999.00 -9999.00 -9999.00 -9999.00 -9999.00 -9999.00 -9999.00 -9999.00 -9999.00 -9999.00 -9999.00 -9999.00 -9999.00 -9999.00 -9999.00 -9999.00 -9999.00 -9999.00 -9999.00 -9999.00 -9999.00 -9999.00 -9999.00 -9999.00 -9999.00 -9999.00 -9999.00 -9999.00 -9999.00 -9999.00 -9999.00
-9999.00 -9999.00 -9999.00 -9999.00 -9999.00 -9999.00 -9999.00 -9999.00 -9999.00 -9999.00 -9999.00 -9999.00 -9999.00 -9999.00 -9999.00 -9999.00 -9999.00 -9999.00 -9999.00 -9999.00 -9999.00 -9999.00 -9999.00 -9999.00 -9999.00 -9999.00 -9999.00 -9999.00 -9999.00 -9999.00 -9999.00 -9999.00 -9999.00 -9999.00 -9999.00 -957.74 1170.73 1622.83 1658.11 1657.64 1655.92 1654.22 1652.60 1650.97 1649.24 1647.38 1645.39 1643.18 1640.77 1638.21 1635.50 1632.62 1629.75 1626.92 1624.06 1621.19 1618.37 1615.67 1613.16 1610.85 1608.72 1606.66 1604.56 1602.24 1599.62 1596.71 1593.72 1591.33 1590.53 1591.53 1593.38 1595.16 1596.55 1597.61 1598.52 1599.40 1600.34 1601.32 1602.33 1603.32 1604.20 1604.88 1605.25 1605.11 1604.30 1602.80 1601.06 1600.10 1600.82 1602.90 1605.49 1608.10 1610.55 1612.84 1615.02 1617.09 1619.04 1620.86 1622.53 1623.99 1625.17 1626.03 1626.53 1626.66 1626.49 1626.05 1625.41 1624.67 1624.02 1623.75 1624.18 1625.44 1627.42 1629.83 1632.43 1635.01 1637.44 1639.61 1641.51 1643.19 1644.68 1646.03 1646.55 1628.71 1409.37 288.44 -2410.50 -9999.00 -9999.00 -9999.00 -9999.00 -9999.00 -9999.00 -9999.00 -9999.00 -9999.00 -9999.00 -9999.00 -9999.00 -9999.00 -9999.00 -9999.00 -9999.00 -9999.00 -9999.00 -9999.00 -9999.00 -9999.00 -9999.00 -9999.00 -9999.00 -9999.00 -9999.00 -9999.00 -9999.00 -9999.00 -9999.00 -9999.00 -9999.00 -9999.00 -9999.00 -9999.00 -9999.00 -9999.00 -9999.00 -9999.00 -9999.00 -9999.00 -9999.00 -9999.00
-9999.00 -9999.00 -9999.00 -9999.00 -9999.00 -9999.00 -9999.00 -9999.00 -9999.00 -9999.00 -9999.00 -9999.00 -9999.00 -9999.00 -9999.00 -9999.00 -9999.00 -9999.00 -9999.00 -9999.00 -9999.00 -9999.00 -9999.00 -9999.00 -9999.00 -9999.00 -9999.00 -9999.00 -9999.00 -9999.00 -9999.00 -9999.00 -9999.00 -9999.00 -2389.22 320.78 1434.55 1643.78 1658.49 1657.23 1655.42 1653.66 1651.93 1650.13 1648.17 1646.06 1643.78 1641.30 1638.63 1635.90 1633.05 1630.00 1626.91 1623.86 1620.76 1617.66 1614.70 1611.97 1609.54 1607.36 1605.36 1603.47 1601.59 1599.57 1597.28 1594.75 1592.38 1591.17 1591.98 1594.31 1596.93 1599.09 1600.69 1601.87 1602.81 1603.66 1604.49 1605.33 1606.16 1606.93 1607.56 1607.97 1608.01 1607.48 1606.22 1604.33 1602.46 1601.78 1602.99 1605.44 1608.24 1610.96 1613.47 1615.81 1617.99 1620.02 1621.90 1623.65 1625.26 1626.68 1627.85 1628.73 1629.28 1629.49 1629.40 1629.05 1628.51 1627.90 1627.37 1627.16 1627.51 1628.51 1630.11 1632.14 1634.41 1636.71 1638.92 1640.97 1642.84 1644.54 1646.11 1647.30 1642.08 1563.05 974.76 -1250.76 -9999.00 -9999.00 -9999.00 -9999.00 -9999.00 -9999.00 -9999.00 -9999.00 -9999.00 -9999.00 -9999.00 -9999.00 -9999.00 -9999.00 -9999.00 -9999.00 -9999.00 -9999.00 -9999.00 -9999.00 -9999.00 -9999.00 -9999.00 -9999.00 -9999.00 -9999.00 -9999.00 -9999.00 -9999.00 -9999.00 -9999.00 -9999.00 -9999.00 -9999.00 -9999.00 -9999.00 -9999.00 -9999.00 -9999.00 -9999.00 -9999.00 -9999.00 -9999.00 -9999.00
-9999.00 -9999.00 -9999.00 -9999.00 -9999.00 -9999.00 -9999.00 -9999.00 -9999.00 -9999.00 -9999.00 -9999.00 -9999.00 -9999.00 -9999.00 -9999.00 -9999.00 -9999.00 -9999.00 -9999.00 -9999.00 -9999.00 -9999.00 -9999.00 -9999.00 -9999.00 -9999.00 -9999.00 -9999.00 -9999.00 -9999.00 -9999.00 -9999.00 -3236.78 -103.19 1257.81 1607.71 1656.84 1658.62 1656.83 1654.94 1653.12 1651.28 1649.29 1647.09 1644.72 1642.16 1639.42 1636.59 1633.76 1630.82 1627.58 1624.26 1621.02 1617.81 1614.68 1611.76 1609.13 1606.79 1604.66 1602.66 1600.76 1598.96 1597.13 1595.16 1593.17 1591.81 1592.12 1594.38 1597.57 1600.57 1602.95 1604.71 1605.99 1606.96 1607.73 1608.44 1609.12 1609.77 1610.34 1610.73 1610.84 1610.54 1609.67 1608.07 1605.89 1603.97 1603.60 1605.23 1607.98 1610.94 1613.75 1616.32 1618.70 1620.87 1622.84 1624.63 1626.31 1627.86 1629.25 1630.41 1631.30 1631.90 1632.18 1632.18 1631.94 1631.53 1631.06 1630.67 1630.55 1630.85 1631.68 1632.98 1634.66 1636.57 1638.57 1640.57 1642.51 1644.34 1646.08 1647.66 1645.79 1596.57 1246.87 -112.71 -3243.28 -9999.00 -9999.00 -9999.00 -9999.00 -9999.00 -9999.00 -9999.00 -9999.00 -9999.00 -9999.00 -9999.00 -9999.00 -9999.00 -9999.00 -9999.00 -9999.00 -9999.00 -9999.00 -9999.00 -9999.00 -9999.00 -9999.00 -9999.00 -9999.00 -9999.00 -9999.00 -9999.00 -9999.00 -9999.00 -9999.00 -9999.00 -9999.00 -9999.00 -9999.00 -9999.00 -9999.00 -9999.00 -9999.00 -9999.00 -9999.00 -9999.00 -9999.00 -9999.00 -9999.00
